# .PCD v0.7 - Point Cloud Data file format
VERSION 0.7
FIELDS x y z intensity
SIZE 4 4 4 4
TYPE F F F F
COUNT 1 1 1 1
WIDTH 1430
HEIGHT 1
VIEWPOINT 0 0 0 1 0 0 0
POINTS 1430
DATA ascii
-9.1002865 -8.9865808 0.68364096 0
-9.0437002 -8.9613094 0.6344099 0
-9.0388842 -8.8696823 0.67839241 0
-5.4018836 -8.2176361 0.62039661 0
-9.0873289 -7.2128735 0.63263524 0
1.4128368 -7.0342021 0.60776502 0
4.2511773 -6.8110704 0.64441466 0
4.3518858 -6.8132992 0.64175546 0
1.2288414 -6.7446175 0.64840591 0
1.3377171 -6.7490134 0.68127155 0
1.4700692 -6.7535362 0.63500047 0
3.6918955 -6.7589626 0.62780964 0
3.7927713 -6.7658863 0.66533452 0
4.0985613 -6.7672873 0.69179547 0
4.2703619 -6.7801785 0.68382704 0
1.2524316 -6.6756659 0.66826928 0
9.0243492 -6.4900432 0.62170035 0
-6.0073104 -6.2840033 0.65445358 0
7.7933607 -6.2998104 0.68077147 0
4.3120642 -6.1298847 0.65845013 0
4.2704582 -6.0306735 0.65631425 0
8.0980911 -6.0690179 0.67332792 0
1.1988697 -5.9259863 0.65798569 0
1.2330387 -5.9494076 0.64298475 0
4.3437667 -5.9474797 0.64744866 0
1.1978114 -5.8460655 0.65549141 0
1.2101191 -5.8300247 0.65276647 0
4.2868743 -5.8002944 0.691122 0
4.3434224 -5.8536091 0.67818004 0
-6.069169 -5.7057505 0.63651448 0
-3.389575 -5.7343378 0.6044718 0
-3.2636552 -5.7267551 0.66627681 0
-3.1068332 -5.7244925 0.67395163 0
-0.99150658 -5.7615895 0.66151643 0
-0.83086634 -5.7829733 0.64227968 0
1.1898336 -5.7686749 0.67568237 0
1.4224603 -5.7170105 0.69798422 0
1.504061 -5.7074652 0.64798009 0
1.9372816 -5.7161388 0.66375947 0
4.1366162 -5.705267 0.63335025 0
4.2517104 -5.7351003 0.63053697 0
8.5408163 -5.793354 0.67017674 0
-6.0280075 -5.6599698 0.60343415 0
-0.9995513 -5.6739583 0.63209337 0
-0.63848484 -5.6372118 0.65586609 0
7.5979495 -5.6632891 0.61673403 0
-6.0398231 -5.5724249 0.66254395 0
-3.0376332 -5.5447335 0.67458564 0
-1.1149597 -5.5178318 0.63004249 0
-1.086712 -5.5370889 0.64531893 0
9.0551758 -5.5066895 0.69559205 0
-3.0325196 -5.4607997 0.66536814 0
-0.56643629 -5.441906 0.60307467 0
-0.43440962 -5.4429078 0.60691518 0
-3.0315819 -5.3828034 0.6960637 0
-1.1719003 -5.3023758 0.6386345 0
-0.71859306 -5.3356848 0.65757519 0
-0.67877269 -5.3377008 0.64139426 0
-0.5814321 -5.3644791 0.62973374 0
6.331779 -5.3156509 0.66533864 0
6.412591 -5.3572292 0.65282714 0
6.6305699 -5.3687963 0.69065076 0
6.7426581 -5.3327885 0.66826946 0
6.241909 -5.2176647 0.65124559 0
6.2262716 -5.1388087 0.66468239 0
6.6735978 -5.1477318 0.65604591 0
6.7759638 -5.02948 0.62941909 0
6.7088099 -4.9835777 0.63306803 0
2.4749808 -4.8944578 0.61346102 0
6.3263273 -4.8563948 0.639853 0
-3.1072412 -4.7514615 0.60172808 0
-3.0349131 -4.713768 0.67143005 0
-6.0287833 -4.6791463 0.67187983 0
-5.9685588 -4.6688681 0.69743448 0
-4.2008386 -4.6785674 0.6618638 0
-3.9585671 -4.6827888 0.65549612 0
-3.76372 -4.6806946 0.6558153 0
-3.1076922 -4.6962137 0.65460181 0
-3.0427401 -4.6899614 0.64417374 0
7.2982168 -4.6036797 0.69923633 0
7.4603686 -4.0942845 0.63936228 0
5.8603778 -3.4521177 0.63897848 0
4.0652504 -3.2177641 0.63004398 0
3.8481681 -3.1633658 0.60889685 0
3.9571135 -3.1473148 0.63912815 0
4.0286908 -3.1673784 0.60554028 0
3.8107767 -3.0486703 0.65573108 0
4.0110416 -3.0628412 0.6172595 0
3.2201748 -2.5250919 0.60623735 0
3.1781352 -2.4622746 0.6333952 0
3.220098 -2.4183483 0.61441422 0
-2.6367998 -2.3127944 0.69369739 0
-2.1939092 -2.3159521 0.63035613 0
3.2592587 -2.3494072 0.66477621 0
9.0452824 -2.382329 0.68998963 0
-2.6725607 -2.2889972 0.69500852 0
-2.2390461 -2.226377 0.67645037 0
3.3232288 -2.2681787 0.64355886 0
-2.1732688 -2.0596457 0.62831306 0
-6.0102406 -1.9062582 0.67704892 0
-2.6008635 -1.9486923 0.6446681 0
-2.2878542 -1.932433 0.69275665 0
-6.0039082 -1.8989191 0.60991699 0
-5.1248913 -1.848474 0.66187906 0
-5.0802116 -1.8363729 0.67532647 0
-5.0264444 -1.7478 0.64871883 0
-5.0359468 -1.6838337 0.68987256 0
-5.0450912 -1.5886061 0.6044997 0
-5.0489812 -1.261143 0.62068385 0
5.6401248 -1.0599904 0.68001425 0
5.877769 -0.96141982 0.61590588 0
5.8383479 -0.84904927 0.62326229 0
5.7802382 -0.73894262 0.64637864 0
5.8100815 -0.76267612 0.6384331 0
5.6381607 -0.62536192 0.60044199 0
4.9521556 -0.25673389 0.6491186 0
5.1203074 -0.21942139 0.64386684 0
5.0357957 -0.16405384 0.64057887 0
-5.1782031 0.73236758 0.61139542 0
-5.1862955 0.83348632 0.65144396 0
-6.1871881 1.0862247 0.63611841 0
-5.2048841 1.0710207 0.68549985 0
-5.1993413 1.0316972 0.68875259 0
-6.178381 1.1103779 0.62571239 0
-5.2402735 1.1492715 0.64570642 0
-5.1938729 1.1422353 0.64755958 0
0.86449838 1.4679369 0.66848928 0
0.94624448 1.4706566 0.66662049 0
1.1894158 1.4269781 0.69075215 0
1.2415479 1.4221374 0.63754201 0
1.1435175 1.5554128 0.64126271 0
1.2392881 1.5294714 0.62688363 0
-2.9598331 1.9783467 0.65926278 0
-2.9021065 2.0158579 0.65142733 0
-2.881813 2.0197206 0.67535847 0
-2.502758 2.0475242 0.61677879 0
1.8525739 4.2856021 0.67977691 0
4.1300764 4.2343655 0.60296917 0
4.6322451 4.2693939 0.63829422 0
4.7846184 4.2716441 0.63416243 0
4.8237414 4.2815757 0.63574427 0
1.8203874 4.3453636 0.67169172 0
4.8203359 4.3448696 0.63994199 0
-4.1642327 4.5226345 0.64100444 0
-1.1794691 4.5362344 0.65064418 0
1.8099599 4.8905354 0.6059739 0
4.8259115 4.8092752 0.67294669 0
-4.172627 5.2952251 0.62747741 0
1.8438107 5.2781329 0.65159899 0
1.9130499 5.2888918 0.62435186 0
4.546133 5.2728705 0.66809356 0
4.6384215 5.270421 0.6899845 0
4.7291765 5.2770853 0.62946302 0
4.8159528 5.2533875 0.65572792 0
-1.1719851 5.3997297 0.60030866 0
1.8482777 5.3005943 0.60208666 0
-7.6016932 5.4259672 0.60980284 0
-7.5603766 5.4244671 0.63846916 0
-1.5344002 5.496428 0.621889 0
-1.2530819 5.4982281 0.66319495 0
-1.1801268 5.4726353 0.66130632 0
-7.2455115 5.553843 0.62857002 0
-7.164494 5.5703564 0.63166052 0
-4.1653562 5.5100517 0.62864584 0
-1.2160809 5.5014768 0.67262173 0
-1.17802 5.5012307 0.65626478 0
6.7705793 6.6662049 0.64538276 0
6.8334861 6.648838 0.6420688 0
7.1264811 6.7826247 0.6790098 0
7.1771574 6.802042 0.60122895 0
6.7041306 6.9978628 0.61526495 0
6.7620797 7.0399451 0.6305421 0
8.9971981 8.9294729 0.67186046 0
9.0307989 8.938447 0.65498191 0
-8.9450464 9.0385618 0.67905492 0
-1.6024754 -9.0673895 0.7401579 0
-0.8557694 -9.0797691 0.72337669 0
3.0640471 -9.0910082 0.73917413 0
3.1727362 -9.0808296 0.78640437 0
-9.0477953 -8.9691935 0.76050156 0
3.7498868 -6.8295927 0.75325006 0
4.2944126 -6.8051353 0.70387536 0
4.3468647 -6.8030863 0.7564702 0
1.1701965 -6.7136278 0.75716573 0
1.2499844 -6.7552056 0.76399535 0
1.4269221 -6.7468371 0.7449531 0
4.185565 -6.763557 0.74348652 0
4.2824755 -6.7847934 0.76713079 0
4.3420811 -6.7990427 0.72649801 0
1.2381859 -6.6627641 0.71117443 0
4.297236 -6.6908655 0.75142884 0
4.2886877 -6.4760275 0.74322116 0
-9.0771008 -6.3711863 0.73196644 0
1.2149096 -6.1256943 0.78855139 0
1.2379091 -5.9442968 0.75199187 0
4.3357458 -5.9024749 0.79098445 0
1.184836 -5.8265762 0.73354155 0
1.219182 -5.8190975 0.7513293 0
4.2805548 -5.8145704 0.73165387 0
4.3334675 -5.8312378 0.72429389 0
-6.0555897 -5.7065811 0.72824049 0
-3.1527679 -5.7548451 0.73085356 0
-3.0247996 -5.7341032 0.76172894 0
-1.0067743 -5.7550793 0.71707034 0
-0.95576382 -5.7549968 0.77356005 0
-0.84215736 -5.761735 0.75740582 0
1.2772018 -5.7412653 0.73734087 0
1.320115 -5.7145238 0.78345191 0
1.7013893 -5.7192712 0.74818343 0
3.284519 -5.7199841 0.70811397 0
3.9867969 -5.7262955 0.75491524 0
4.0712047 -5.721868 0.73315209 0
4.194066 -5.7283401 0.75060624 0
-6.0574698 -5.6838589 0.76267302 0
-3.0408249 -5.657938 0.71222979 0
-0.97925091 -5.6596789 0.78079545 0
-0.65110254 -5.6536655 0.75354075 0
1.2890075 -5.6964331 0.74965072 0
-3.0455508 -5.5791054 0.72210717 0
-1.0705514 -5.5288153 0.79198265 0
-0.59579736 -5.5564098 0.75842333 0
-0.48110771 -5.5500402 0.76743889 0
-3.0281191 -5.4754586 0.70071816 0
-1.1884822 -5.4539924 0.74247605 0
-0.57909608 -5.4607 0.72456324 0
-1.1968412 -5.3647499 0.77161056 0
-0.72793949 -5.3850451 0.76415229 0
6.4325638 -5.3705435 0.71011472 0
6.5338769 -5.3239975 0.79044664 0
6.6314893 -5.3431816 0.790434 0
6.7453723 -5.3178782 0.74790263 0
6.2828178 -5.2490387 0.76066607 0
6.3013763 -5.2689695 0.70681739 0
6.2331343 -5.1080422 0.77769858 0
6.5840602 -5.1137314 0.77932751 0
6.6213956 -5.1228857 0.72739154 0
-3.0728002 -4.9528499 0.76988029 0
6.7526398 -4.982615 0.71230996 0
7.1514678 -4.9434767 0.72845674 0
-6.0315433 -4.8352642 0.71150297 0
-3.1016469 -4.8257608 0.74436438 0
-3.0548463 -4.8430576 0.79879332 0
6.3669405 -4.8376503 0.78301263 0
9.0468359 -4.8984232 0.73433614 0
-6.0274239 -4.7710238 0.71141696 0
-3.0740266 -4.7985744 0.76922321 0
-6.0231981 -4.6770487 0.76008922 0
-3.5894611 -4.6837282 0.72019839 0
-3.0371079 -4.6787353 0.7340225 0
6.0406685 -3.7930131 0.70446557 0
4.0598845 -3.2012956 0.76458549 0
3.8173964 -3.1201613 0.72954613 0
4.0161042 -3.1524739 0.7324093 0
3.8859401 -3.0715547 0.77719754 0
4.1277242 -2.9153128 0.72485948 0
4.255239 -2.9253573 0.7106005 0
4.1828623 -2.8848429 0.72055453 0
7.1964326 -2.8400915 0.73825502 0
3.1557648 -2.5725405 0.79575586 0
3.1780539 -2.455416 0.76160258 0
3.2107301 -2.4066849 0.72559148 0
-2.6508269 -2.3056588 0.74595714 0
-2.5974905 -2.3488355 0.70420438 0
-2.7082584 -2.2533588 0.71152925 0
-2.2398992 -2.2430816 0.71788096 0
9.0464077 -2.2571235 0.76181054 0
-2.1675091 -2.0691919 0.75225234 0
9.0384951 -2.0940859 0.79551697 0
-6.0085082 -1.9060278 0.70397913 0
-2.1999438 -1.9688385 0.7924065 0
-6.012126 -1.8841553 0.73198032 0
-5.0438499 -1.8421818 0.74846667 0
-5.0153193 -1.7723618 0.72871083 0
9.0385618 -1.69327 0.78516924 0
5.6468267 -1.0425825 0.74740291 0
5.7227802 -0.96431208 0.71539354 0
5.8739414 -0.90890431 0.72024751 0
5.7951117 -0.83499157 0.73247063 0
5.8566399 -0.82449222 0.72090137 0
5.7784219 -0.74224973 0.77347869 0
5.8098145 -0.76080281 0.79590321 0
4.9675016 -0.22441769 0.79674834 0
5.133532 -0.22432089 0.72934341 0
5.2144356 -0.28386188 0.74644977 0
5.0462108 -0.16378281 0.75871247 0
-5.1654224 0.89652538 0.79911423 0
-6.1769295 1.0963089 0.7201134 0
-5.2011213 1.0359108 0.73511946 0
-5.1789856 1.0466987 0.76278591 0
-6.1614861 1.1015873 0.7628299 0
-5.4296985 1.1355581 0.73619556 0
-5.2259107 1.1489692 0.7440545 0
0.76330471 1.2786093 0.74522835 0
1.1848853 1.4359411 0.70910978 0
1.1456519 1.5091529 0.75952375 0
-2.7999666 1.9800339 0.79309011 0
1.8510309 4.2870913 0.7392264 0
2.138907 4.2462373 0.70517433 0
4.7558985 4.2659464 0.73923391 0
4.818728 4.2853489 0.73124272 0
1.8254174 4.3206363 0.76369816 0
4.8140583 4.304554 0.73789966 0
-1.4659618 4.4606066 0.72386479 0
-1.2088306 4.4952788 0.75684637 0
-1.1943655 4.4909873 0.77980649 0
1.8055888 4.4073286 0.76098847 0
4.8425312 4.4058924 0.74829018 0
-4.1648321 4.5258865 0.75407636 0
-4.0664926 4.5264177 0.79527617 0
-1.8590608 4.5002475 0.77222884 0
-1.2317619 4.5076914 0.77111983 0
-1.1832047 4.5461802 0.74473381 0
1.82371 4.5395317 0.718759 0
-1.1831836 4.6256104 0.77097058 0
1.8145328 4.6180263 0.7171067 0
-1.1751823 4.7715464 0.73982501 0
4.8216963 5.1695318 0.76861632 0
1.8247148 5.2704358 0.75661051 0
4.7322731 5.2684183 0.76120353 0
4.8199058 5.2578712 0.75261557 0
-1.1643119 5.3350544 0.79526246 0
-7.5715051 5.4618158 0.75611126 0
-4.1712074 5.4806366 0.71891475 0
-1.2590523 5.4968176 0.72427124 0
-1.1782516 5.4772496 0.74407238 0
-4.1651158 5.5152788 0.73726231 0
-3.9040031 5.5266695 0.76521683 0
-1.4323647 5.5069966 0.74714136 0
-1.2415581 5.5037594 0.79338038 0
-1.1666242 5.5026612 0.74576765 0
7.0717006 6.7822647 0.73117495 0
7.1450477 6.7929916 0.7317608 0
6.7503195 6.8466539 0.73568487 0
6.996212 6.8682656 0.71315378 0
7.0190592 6.8816833 0.79910815 0
7.1612506 6.8043237 0.72088438 0
6.8508859 7.0972176 0.70151281 0
8.9853067 8.9494009 0.74232751 0
9.0250225 8.946517 0.74132973 0
-8.9421568 9.0423632 0.73125482 0
0.031293631 -9.1056404 0.8320092 0
1.0483484 -9.1026087 0.89252943 0
2.3534999 -9.1117182 0.81427288 0
5.2701759 -9.1243677 0.84079933 0
5.3215094 -9.1096754 0.89363474 0
1.9579802 -9.0827141 0.852449 0
3.3025053 -9.0794306 0.83451426 0
3.7133389 -9.0772343 0.85429406 0
8.9683685 -9.0757914 0.84003836 0
-9.0531321 -8.9636908 0.85059112 0
-9.0404387 -8.8765545 0.86017299 0
-0.37807155 -8.833066 0.82847369 0
-3.6953731 -8.6916275 0.89245796 0
-2.9624252 -8.6003666 0.84561443 0
-0.68346202 -8.6282778 0.82545793 0
1.152221 -6.8077664 0.85206187 0
1.2222165 -6.7557878 0.84182984 0
1.3487521 -6.7600336 0.87007678 0
1.4735538 -6.7478528 0.80269724 0
4.1490068 -6.7643471 0.86735213 0
4.2637343 -6.7694798 0.83855152 0
4.340878 -6.7905173 0.84343797 0
4.3102126 -6.1159573 0.84438503 0
1.1681731 -5.8179293 0.89585519 0
1.2287909 -5.8317733 0.85440475 0
4.3378916 -5.8483815 0.83526266 0
-6.0557327 -5.7043023 0.83109576 0
-3.1751919 -5.7366629 0.86446267 0
-3.0748954 -5.7214932 0.88777393 0
-0.9384014 -5.7439194 0.87724119 0
-0.86618865 -5.7677393 0.8531698 0
-0.66386855 -5.7009544 0.85645545 0
1.1974158 -5.7547836 0.86863291 0
1.201005 -5.7944241 0.85270339 0
1.3091617 -5.7088194 0.84324801 0
2.0014844 -5.7326131 0.8267169 0
4.2602606 -5.7443142 0.85001433 0
4.3023977 -5.7938499 0.88865411 0
-6.0539522 -5.6846995 0.86556703 0
-1.1054996 -5.6809216 0.85778093 0
-0.66578889 -5.6780114 0.85914427 0
-3.0246925 -5.5657034 0.81928825 0
-1.1935512 -5.5024805 0.89276344 0
-1.0800133 -5.5103736 0.82996947 0
-0.60362858 -5.5107851 0.85815734 0
-1.1811929 -5.4872522 0.8196733 0
-0.57005334 -5.411931 0.8374868 0
-0.48092222 -5.4064054 0.88482118 0
-0.73244846 -5.3886814 0.82855266 0
-0.68110073 -5.374733 0.84159422 0
6.344903 -5.3427024 0.89501476 0
6.4464474 -5.3667393 0.82004154 0
6.6305532 -5.3210869 0.89132386 0
6.7088361 -5.3271141 0.84727401 0
-1.1227815 -5.2685885 0.87498438 0
6.2906942 -5.249475 0.83585954 0
6.3201346 -5.2733374 0.85379148 0
6.2393904 -5.1680965 0.85114503 0
6.5762758 -5.1151094 0.83698207 0
6.2394352 -5.077816 0.89210933 0
6.7628794 -5.0342445 0.84673452 0
-3.0948462 -4.8162842 0.8452841 0
6.3324742 -4.8482199 0.86871171 0
-6.0308356 -4.741034 0.86275572 0
-3.0150936 -4.7158155 0.88842571 0
-5.9923468 -4.6747808 0.83357513 0
-3.1130757 -4.6927309 0.85377157 0
-3.0744834 -4.6806264 0.83733118 0
7.1242642 -3.5762231 0.85550857 0
3.8571672 -3.1332197 0.82157516 0
3.9360676 -3.1346312 0.82210737 0
4.0248842 -3.1589508 0.87738419 0
3.8020854 -3.021987 0.83406413 0
4.0676203 -2.9862018 0.88121247 0
4.1713352 -2.8754182 0.8437559 0
4.2856894 -2.8596961 0.85259765 0
3.1320877 -2.5537126 0.80509746 0
3.1617777 -2.4686115 0.89886415 0
-2.6060507 -2.3043833 0.8717224 0
-2.5935094 -2.3175135 0.87616163 0
-2.6754978 -2.2494843 0.87106466 0
-2.2310734 -2.2178836 0.86248541 0
-2.1312323 -2.0439382 0.85145676 0
-6.0094461 -1.9095973 0.84688282 0
-5.1298614 -1.9100146 0.83242017 0
-2.176857 -1.9950128 0.81716192 0
-6.0089178 -1.8850001 0.83070296 0
-5.0300589 -1.8433117 0.86562657 0
-5.0245295 -1.7518356 0.8686263 0
5.8638325 -0.9321354 0.81074017 0
5.8369064 -0.85702872 0.83194 0
5.7753186 -0.74101925 0.83076859 0
5.8017826 -0.76058483 0.8101505 0
5.0457368 -0.1573623 0.83818418 0
-5.1711278 0.7317003 0.86593813 0
-6.1773415 1.0925177 0.86373097 0
-5.4145598 1.1408105 0.8652879 0
-5.2541356 1.1453127 0.84526229 0
-5.1981993 1.139724 0.86853713 0
0.77098799 1.2823944 0.83275652 0
0.70447564 1.470521 0.89681792 0
-2.8316531 1.986699 0.83822978 0
-2.7696447 1.9877038 0.80904055 0
1.8547164 4.2840495 0.85415465 0
2.4012585 4.2715087 0.80106664 0
4.7711763 4.2658701 0.87356102 0
4.810173 4.2721314 0.85035384 0
1.8284059 4.3389421 0.87053567 0
-1.4277853 4.4650083 0.81362402 0
-1.3623338 4.4964962 0.8144902 0
-1.2321081 4.474647 0.80992812 0
-4.1608214 4.5222669 0.87791044 0
-1.3133168 4.5000243 0.89503396 0
-1.1780767 4.5255256 0.84970975 0
1.8205148 4.5530043 0.86110365 0
4.8217087 4.5294952 0.84119046 0
-1.1850433 4.6859689 0.82174015 0
1.8331332 4.8465109 0.81265754 0
4.8162575 4.9328299 0.84589505 0
4.8174906 5.1815462 0.85969484 0
-4.184639 5.2789574 0.81240511 0
1.8499209 5.283258 0.88881296 0
4.6472158 5.27425 0.8270781 0
4.7197018 5.2723007 0.82567334 0
4.8190455 5.2508173 0.85047799 0
-1.1763725 5.3988905 0.8332864 0
-7.6037745 5.4504347 0.83848691 0
-7.565043 5.4486346 0.80862433 0
-4.1724887 5.4821634 0.8653878 0
-1.1788068 5.466332 0.83382702 0
-4.1655116 5.5105162 0.87892431 0
-4.0795622 5.5229492 0.87644589 0
-1.230836 5.5015774 0.85082734 0
-1.1750218 5.5082545 0.80788082 0
7.0867448 6.837862 0.84840959 0
7.1402016 6.8406663 0.8308807 0
9.0395555 8.8990688 0.83509183 0
9.0284662 8.9420643 0.85502893 0
-8.9493885 9.0213413 0.866063 0
1.3289275 -9.1071329 0.95936382 0
5.3812885 -9.1025448 0.94639933 0
9.0016842 -9.1156864 0.94907534 0
-4.7966189 -9.0481033 0.97881025 0
-3.558851 -9.0638103 0.91914201 0
-0.026656747 -9.0641832 0.94308865 0
0.35001755 -9.0754547 0.90445483 0
0.58923107 -9.0966311 0.98838162 0
2.0224061 -9.092247 0.97096348 0
2.1056669 -9.0732117 0.92045146 0
2.2401474 -9.0722771 0.96481442 0
5.5049148 -9.0888577 0.99580413 0
-9.0581188 -8.974802 0.94605124 0
-4.9439197 -8.4824629 0.93411624 0
-3.6096969 -7.4180241 0.90211654 0
-4.1257129 -7.3309054 0.92017692 0
1.2164847 -6.7501178 0.96016568 0
1.3107414 -6.7583261 0.95738506 0
1.4204707 -6.7504749 0.96134675 0
4.2497454 -6.7571163 0.96426785 0
4.323688 -6.7805495 0.93575543 0
-5.9929967 -6.6376534 0.94482416 0
1.2461503 -6.6725702 0.94628209 0
4.3004885 -6.6683874 0.93215346 0
4.2913494 -6.4725456 0.9456538 0
1.2120011 -6.3870449 0.90868378 0
9.040205 -6.0177135 0.93306124 0
1.2579801 -5.9485092 0.93229234 0
1.2159872 -5.8310418 0.95682895 0
4.2738638 -5.8180828 0.99204367 0
4.3308425 -5.8397946 0.91913319 0
-6.0485668 -5.7003422 0.92882198 0
-3.3134787 -5.7093344 0.96510458 0
-3.1477895 -5.7474647 0.99044448 0
-3.0505676 -5.7174759 0.94744956 0
-1.0672832 -5.7126904 0.90886056 0
-0.96672559 -5.726285 0.96662354 0
-0.850986 -5.7460837 0.95529622 0
-0.72494906 -5.7324443 0.92080367 0
1.2649676 -5.7471247 0.96447313 0
1.3242991 -5.7067842 0.99265009 0
1.7284045 -5.7123451 0.94549376 0
3.9867935 -5.7282538 0.97058851 0
-6.0490289 -5.6812348 0.94302827 0
-3.041784 -5.6338282 0.94463658 0
-1.1264849 -5.6445007 0.940835 0
-1.0804254 -5.6801572 0.98536521 0
-0.96621466 -5.647337 0.93078196 0
-0.6714161 -5.6799054 0.95648098 0
-3.0415604 -5.5251379 0.9167009 0
-0.60251451 -5.5722427 0.97610182 0
-1.1627769 -5.4179196 0.93687499 0
-0.56307101 -5.4737368 0.96064955 0
6.3378983 -5.3256578 0.96473992 0
6.4715314 -5.3179564 0.93113589 0
6.5317917 -5.3122587 0.92880505 0
6.6632442 -5.3143988 0.97955829 0
6.7065949 -5.3128977 0.90917182 0
-1.1047952 -5.2549739 0.99516606 0
6.3286676 -5.2751303 0.95705628 0
6.6338372 -5.2903404 0.99241 0
6.7722516 -5.2665129 0.91987437 0
6.2391443 -5.1399059 0.95206237 0
6.5419245 -5.1128602 0.96529859 0
-3.0741439 -4.9304447 0.94256091 0
6.7391667 -4.9821434 0.97085446 0
-6.0299225 -4.8264956 0.96369046 0
-3.0640659 -4.8304167 0.96742284 0
6.3805089 -4.8294573 0.95384049 0
-3.056802 -4.7312541 0.94118845 0
-6.0215635 -4.6679053 0.9099707 0
-5.9671774 -4.676158 0.97976184 0
-3.1698761 -4.698307 0.92486209 0
-3.0571058 -4.6917925 0.95043087 0
7.0733566 -4.4551592 0.99525237 0
7.0760283 -4.0898294 0.93699026 0
3.9551964 -3.1199646 0.99290764 0
4.006671 -3.1245708 0.98694932 0
3.8501794 -3.0539112 0.96155035 0
4.1672997 -2.8655958 0.96754897 0
3.1540694 -2.52091 0.94937801 0
3.1949265 -2.4345317 0.9257741 0
-2.6442564 -2.2777395 0.91324151 0
-2.2301412 -2.2659013 0.97666126 0
3.349093 -2.2506275 0.9060154 0
-2.1709535 -2.0346661 0.99544084 0
-6.0106626 -1.9204862 0.93146002 0
-6.0084767 -1.8871548 0.96103883 0
-5.0631828 -1.8354371 0.94556504 0
-5.0352273 -1.764809 0.96562767 0
-5.0771365 -1.6890488 0.90546441 0
5.6395273 -1.0355208 0.93367201 0
5.70715 -0.93727827 0.9563967 0
5.7989106 -0.82744515 0.92114222 0
5.8387465 -0.845285 0.97544169 0
5.7766018 -0.73999578 0.95090723 0
4.8977442 -0.31375313 0.90967274 0
5.1345816 -0.2178545 0.93105829 0
5.0404196 -0.16381013 0.96063399 0
-5.1929102 0.83438456 0.94397658 0
-6.1910639 1.0980325 0.99714667 0
-5.2014375 1.0771042 0.99393731 0
-5.1961932 1.0683985 0.9779458 0
-5.206214 1.1468897 0.98724079 0
-2.8209791 1.7397699 0.92493671 0
1.8321953 4.2928948 0.96747416 0
1.9007483 4.2740288 0.95791113 0
2.3453214 4.2817998 0.98181522 0
2.7517796 4.2804203 0.95689434 0
4.1460342 4.2512779 0.95166695 0
4.4588528 4.273571 0.96953702 0
4.7436094 4.2622285 0.95633507 0
4.8189888 4.2727208 0.92699003 0
1.8182364 4.3176694 0.98134869 0
4.8100519 4.3243265 0.937204 0
-1.2075946 4.4945965 0.96888739 0
-1.1815352 4.4989691 0.93989682 0
4.8462634 4.4067793 0.99664855 0
-4.1572447 4.5227852 0.92823893 0
-3.967514 4.5100336 0.90096623 0
-1.2291994 4.5043197 0.98346645 0
-1.1814659 4.5455575 0.95501602 0
-1.184588 4.6236587 0.97566235 0
1.8181834 4.6135159 0.94135201 0
-1.1752787 4.7713895 0.95406926 0
1.8226103 5.2721109 0.92875838 0
4.5348692 5.2755599 0.93614888 0
4.6537414 5.2670403 0.96293259 0
4.7153234 5.268733 0.95052588 0
4.8214478 5.2671022 0.90835494 0
-1.1458602 5.3087206 0.94456542 0
-4.1679006 5.4895687 0.98274046 0
-1.1749852 5.4779019 0.92945033 0
-1.1687645 5.506094 0.96323866 0
7.0410967 6.8462944 0.94813544 0
7.1628942 6.8425465 0.90912396 0
9.0437117 8.8786116 0.91180831 0
9.0186481 8.9486017 0.96364146 0
-8.9379377 9.0419769 0.93020809 0
0.070412636 -9.1006126 1.0978553 0
6.2387342 -9.1070204 1.036335 0
-6.654068 -9.0340738 1.0993248 0
-4.2954636 -9.053093 1.0963798 0
-0.72200859 -9.0813684 1.0256648 0
-0.69013619 -9.0743418 1.0957805 0
0.76462448 -9.0545998 1.077144 0
0.98794019 -9.0731401 1.0290643 0
1.1503875 -9.0799437 1.0865252 0
5.7703218 -9.0820112 1.0410939 0
-9.0553293 -8.9621067 1.047786 0
-9.0366192 -8.8669968 1.0410801 0
-4.2324915 -8.84377 1.0856388 0
-5.9083624 -7.9152737 1.0634627 0
-5.9370399 -7.7682619 1.0550048 0
1.1833808 -6.7910366 1.0044464 0
1.2221117 -6.7548666 1.0634655 0
1.3539249 -6.7417088 1.0608591 0
1.6228765 -6.7499866 1.0388882 0
4.0983882 -6.7487259 1.0815765 0
4.1888175 -6.7475514 1.0344822 0
4.2629395 -6.7695694 1.0659964 0
4.3224254 -6.7623401 1.016394 0
1.2437946 -6.6922202 1.0607831 0
1.1868951 -5.8002281 1.0543928 0
1.2225534 -5.8358736 1.0544552 0
4.3518338 -5.8656116 1.0467234 0
-3.13959 -5.7358232 1.0616895 0
-3.0698547 -5.7044058 1.0477042 0
-0.96612597 -5.7044892 1.0677032 0
-0.84138811 -5.7524452 1.0508311 0
-0.76523751 -5.7325358 1.0262029 0
1.2339869 -5.7566366 1.0569999 0
1.3102626 -5.713798 1.0880921 0
4.2782583 -5.7604318 1.0366764 0
-6.0444708 -5.6799846 1.0198171 0
-3.1690965 -5.6936517 1.0497137 0
-3.0542667 -5.6507206 1.0364767 0
-1.120037 -5.651413 1.0384879 0
-1.0786005 -5.6570206 1.0653152 0
-0.96863365 -5.6621327 1.0512774 0
-0.66548651 -5.6622496 1.0536046 0
-3.0418975 -5.5757866 1.0489753 0
-0.52168465 -5.522727 1.0567542 0
-3.0743046 -5.4813137 1.0689533 0
-1.1589448 -5.4548988 1.0423502 0
-1.2042811 -5.3951797 1.005977 0
-1.1859024 -5.3787222 1.0933659 0
-0.5884912 -5.3666377 1.0731063 0
6.3722634 -5.3476734 1.0499327 0
6.4531679 -5.3187413 1.0457944 0
6.6144085 -5.3378801 1.0141852 0
6.765605 -5.3012838 1.0012982 0
6.324368 -5.2470775 1.0660917 0
6.4558315 -5.2856474 1.0603389 0
6.6280999 -5.2775102 1.0955143 0
6.7871833 -5.2597947 1.0634259 0
6.2346358 -5.1243587 1.0547974 0
6.5732069 -5.102396 1.0068834 0
6.22539 -5.0761309 1.0085727 0
-3.0731533 -4.8631344 1.0806882 0
-6.0280004 -4.751513 1.0124718 0
-3.0635982 -4.7751131 1.0693953 0
6.4444652 -4.7964888 1.0436357 0
-6.0185747 -4.6818891 1.0906432 0
-5.9944515 -4.6645846 1.0751194 0
-4.9654417 -4.6807847 1.072754 0
-3.5832186 -4.6868086 1.058988 0
-3.1200328 -4.6878877 1.054345 0
-3.0806484 -4.6853867 1.0846652 0
9.0475426 -4.2016554 1.0541173 0
9.0726271 -3.2708359 1.0066779 0
3.8705227 -3.1191561 1.0381718 0
3.9036536 -3.1334305 1.039614 0
4.0297899 -3.1614749 1.0271864 0
9.0683889 -3.1864033 1.0553882 0
3.7986851 -3.0125933 1.01407 0
3.8474588 -3.0997238 1.0332915 0
3.9201179 -3.089792 1.0051583 0
4.1750765 -2.855262 1.0908432 0
4.2904501 -2.8507447 1.0006974 0
3.1587167 -2.5443039 1.0129505 0
3.2097416 -2.5182564 1.0194426 0
3.1807551 -2.4655173 1.0438114 0
3.2161975 -2.4259002 1.0274318 0
3.2299423 -2.3984282 1.0176311 0
-2.6175835 -2.2710249 1.0557222 0
-2.5698946 -2.2867761 1.0471338 0
-2.220006 -2.1894615 1.0265796 0
-6.0068312 -1.9050879 1.043937 0
-2.1906047 -1.9931183 1.0588121 0
-6.0016642 -1.8988431 1.0731504 0
-5.1136065 -1.8888745 1.0963631 0
-5.0313501 -1.835912 1.070406 0
-5.0268488 -1.7582377 1.0588886 0
4.2643938 -1.11285 1.0095421 0
5.8455482 -0.91202116 1.0190856 0
5.7603993 -0.84397364 1.0261073 0
5.8441515 -0.891222 1.0090295 0
5.7742982 -0.74133378 1.0683998 0
5.8082747 -0.76040447 1.0495746 0
4.9603186 -0.24067688 1.0532705 0
5.1141119 -0.2133112 1.0316504 0
5.2083731 -0.29286265 1.0884444 0
5.0477028 -0.1494972 1.0213889 0
-5.1758618 0.62253296 1.0698627 0
-5.1806011 0.77643442 1.0887417 0
-5.2008181 1.0901146 1.0818036 0
-5.1988373 1.0590843 1.0616586 0
-6.1695318 1.1045828 1.0225487 0
-5.3833375 1.1319556 1.0161967 0
-5.2415204 1.1496223 1.0418655 0
-5.1883211 1.1317854 1.0358794 0
1.8584824 4.2822542 1.0268425 0
2.1262097 4.2793832 1.0180913 0
2.3923864 4.2793741 1.0479237 0
4.6551752 4.2754545 1.0257081 0
4.7422795 4.2697272 1.0230466 0
4.8112235 4.2699456 1.043813 0
1.8181973 4.3496656 1.0733793 0
-1.1873875 4.4974842 1.0609448 0
1.8177588 4.4497528 1.0621271 0
-4.1681943 4.530458 1.046267 0
-4.0497169 4.5100527 1.0332302 0
-1.6816945 4.5025301 1.0256214 0
-1.2108951 4.5051346 1.0164074 0
-1.1827416 4.55723 1.0872834 0
-1.1863211 4.6497669 1.0640874 0
-4.1823378 4.7617269 1.0700275 0
-1.1793296 4.7624002 1.0665139 0
1.8231554 4.882587 1.071185 0
4.8211012 4.8138204 1.0765942 0
1.8292994 4.9094296 1.085198 0
1.8309212 5.0017672 1.0733343 0
-4.1743031 5.2935915 1.0054359 0
1.8115039 5.2775974 1.0867743 0
4.6512318 5.2658963 1.0987378 0
4.7164145 5.2655849 1.0897545 0
4.8180499 5.2526445 1.0341636 0
-1.1793506 5.3755016 1.062233 0
-4.1756048 5.4667506 1.0274198 0
-1.2567999 5.4946704 1.0304587 0
-1.1822592 5.4611039 1.0745671 0
-4.1659617 5.5107489 1.0261829 0
-1.2200637 5.501296 1.0088842 0
8.9750881 8.9435501 1.0678864 0
9.0302019 8.9324808 1.0625738 0
-8.9539347 9.0247335 1.0661623 0
0.79384422 -9.1499176 1.1374972 0
0.84546375 -9.1391296 1.1357219 0
1.2644987 -9.1259689 1.1515796 0
-5.6049099 -9.0524397 1.1740915 0
-5.5647655 -9.0267687 1.1654824 0
-4.6585732 -9.0706072 1.1450548 0
-4.3002148 -9.0525799 1.1031442 0
-4.2544951 -9.0647049 1.1101468 0
-3.6196656 -9.0771856 1.1571033 0
-0.62875122 -9.0820637 1.1393843 0
5.278883 -9.0569849 1.1992905 0
6.3849816 -9.0883026 1.1180459 0
6.6509628 -9.0759983 1.1606259 0
7.4600582 -9.0684814 1.1825861 0
8.8752546 -9.0348263 1.1040244 0
8.9796133 -9.0865431 1.117663 0
9.0125141 -9.0856276 1.1529193 0
-9.0477724 -8.9592123 1.1538886 0
9.0449858 -8.4719591 1.1187164 0
4.3314495 -6.8124857 1.1171623 0
1.1710827 -6.7750278 1.1624939 0
1.2209778 -6.7519851 1.1677519 0
1.3382751 -6.729744 1.164874 0
4.1375976 -6.7472343 1.1448793 0
4.2852259 -6.7626305 1.1608233 0
4.3176355 -6.7482224 1.1478648 0
1.2407302 -6.6670604 1.1625406 0
4.2863951 -6.6411662 1.1457269 0
4.2651653 -6.1870337 1.1170733 0
1.2342108 -5.8302002 1.1514376 0
4.348033 -5.8503237 1.1590049 0
-3.1031406 -5.7048984 1.1062013 0
-3.0763056 -5.7292824 1.1500314 0
-0.93924499 -5.7387052 1.1515852 0
-0.87570411 -5.7218428 1.1508449 0
-0.74723721 -5.7166576 1.116172 0
1.2553388 -5.763588 1.1454467 0
1.3956099 -5.7132549 1.1698389 0
1.4177291 -5.7137518 1.1795075 0
1.5031259 -5.7074485 1.1112943 0
1.7003341 -5.7063584 1.1779959 0
1.9996881 -5.7255797 1.1180595 0
3.9860289 -5.728013 1.1883601 0
4.1945276 -5.712019 1.1205887 0
4.2883368 -5.752223 1.1683744 0
4.3342409 -5.7977552 1.1745881 0
-6.0256371 -5.6815109 1.1291409 0
-3.2988667 -5.6920328 1.1910186 0
-3.07899 -5.6897221 1.1511518 0
-1.1208062 -5.6231503 1.1277765 0
-1.0547184 -5.6532035 1.1719587 0
-0.97114301 -5.6778493 1.1381042 0
-0.7446515 -5.6880684 1.1553464 0
-0.67665052 -5.6645627 1.1536056 0
-3.0419118 -5.5456948 1.1847785 0
-1.1294602 -5.5414848 1.1480083 0
-3.0421515 -5.4795656 1.1235818 0
-1.1508001 -5.3427477 1.1529247 0
-0.54785371 -5.3579655 1.1790762 0
6.3576303 -5.3101215 1.1836517 0
6.3192182 -5.2511683 1.1454141 0
6.4729714 -5.275249 1.1614431 0
6.5664139 -5.2842393 1.1941279 0
6.7551823 -5.2636209 1.1346141 0
6.253551 -5.1710978 1.1618409 0
6.2291288 -5.0491495 1.1251147 0
6.8085294 -5.080718 1.1669774 0
-3.0682521 -4.9128413 1.1157713 0
6.7330666 -4.9799709 1.1031939 0
-3.0425434 -4.8402834 1.1924416 0
6.4303799 -4.8047681 1.1185734 0
-6.0285773 -4.7890854 1.1275429 0
-3.0636466 -4.7631121 1.1720357 0
6.4444246 -4.7846022 1.1726596 0
-4.5552649 -4.6775894 1.1583904 0
-4.4377809 -4.6710749 1.1608056 0
-3.9454994 -4.6797643 1.1857419 0
-3.1582747 -4.6780076 1.1905627 0
9.0238075 -4.1678944 1.1244826 0
9.0273247 -4.0293279 1.1615819 0
9.0227652 -3.8396754 1.1906955 0
9.0272636 -3.3797443 1.1603698 0
4.0093074 -3.1265068 1.1363678 0
3.9605024 -3.0781288 1.1788417 0
4.0093117 -3.0600381 1.1782447 0
9.0704927 -3.0914311 1.1031927 0
3.7847152 -2.9686999 1.1947227 0
9.0625143 -2.9130831 1.1331983 0
4.2573376 -2.8103805 1.1407421 0
9.0639267 -2.4759665 1.1083237 0
-2.6800475 -2.1482258 1.1982741 0
-2.2054169 -2.1465383 1.1651536 0
-5.1414642 -1.8600326 1.1473405 0
-5.0335932 -1.8310592 1.1524031 0
-5.0435891 -1.7671344 1.1532061 0
5.6088905 -1.0035019 1.1649001 0
5.6645384 -0.95424485 1.1917534 0
5.8277235 -0.85385752 1.1446567 0
5.8289108 -0.78334022 1.1458805 0
5.1277504 -0.22719431 1.1377654 0
4.997025 -0.18681288 1.1871226 0
5.0358148 -0.16872765 1.1547049 0
-5.1849661 0.73317826 1.1253706 0
-5.181612 0.84528589 1.1749759 0
-5.1945667 1.0712185 1.1765083 0
-5.2275143 1.1605446 1.1738265 0
1.8452914 4.2822909 1.1557534 0
2.344038 4.2807474 1.1378554 0
3.5174942 4.2882981 1.1183633 0
3.7257748 4.2864056 1.1190597 0
4.1655278 4.2874393 1.1768702 0
4.7621555 4.2789783 1.1661385 0
4.8056726 4.2630887 1.1859707 0
1.8220817 4.3226042 1.1500759 0
4.8062482 4.335947 1.1810466 0
-1.3618999 4.4962397 1.1645602 0
-1.2132733 4.4977469 1.1983774 0
-1.1856525 4.4937258 1.148242 0
-4.1462669 4.5170145 1.1918912 0
-1.4480458 4.507906 1.1569406 0
-1.1911025 4.5240316 1.1716774 0
1.8125114 4.5573716 1.1843526 0
-1.1831222 4.626092 1.1458914 0
1.8147802 4.611968 1.1669325 0
-1.1908269 4.7670965 1.1735609 0
1.8237166 4.844553 1.1463308 0
4.8154259 5.1138964 1.188305 0
1.8437164 5.2780962 1.1185147 0
4.7219486 5.2697353 1.1141683 0
4.8101554 5.2670269 1.1790464 0
-1.2411786 5.4969492 1.1899028 0
-1.1853412 5.4540887 1.1287421 0
9.0317907 8.8862038 1.1134136 0
8.9935112 8.9491329 1.1313406 0
9.0253897 8.9435024 1.1257503 0
-8.9363451 9.047555 1.1414658 0
-7.7463107 -9.0313959 1.2785575 0
-6.8606458 -9.0237465 1.2083865 0
-4.8634968 -9.0586414 1.2481086 0
-3.8195584 -9.0608692 1.2573715 0
-0.51149428 -9.0623331 1.2242942 0
-0.27022082 -9.0561085 1.275347 0
4.4377532 -9.0553026 1.2673738 0
5.5615349 -9.0558939 1.2803696 0
5.6621771 -9.0548115 1.2282903 0
5.8801093 -9.0623007 1.2882631 0
7.4996996 -9.0679846 1.2368355 0
7.6063781 -9.0568724 1.2868863 0
8.9735136 -9.0548935 1.2625335 0
9.0138397 -9.0726175 1.2739568 0
-9.0519791 -8.9503031 1.2468001 0
-9.0346403 -8.8631001 1.225226 0
9.0268288 -8.3330002 1.2115722 0
9.0108166 -7.9958944 1.2788392 0
-9.1085443 -7.1564803 1.27951 0
-8.4847097 -7.1962156 1.2180678 0
4.3550162 -6.8436847 1.2346507 0
1.2430905 -6.7400217 1.2507272 0
1.3289626 -6.7292376 1.2448841 0
4.194314 -6.7353964 1.2155143 0
4.2518454 -6.7498598 1.2785085 0
4.3141131 -6.7659302 1.2634192 0
1.2556772 -6.6778517 1.2401873 0
4.2794313 -6.6552792 1.2982061 0
1.2993469 -5.9859233 1.2398602 0
4.2869682 -5.9149661 1.2546866 0
1.2333183 -5.831645 1.2492943 0
4.2755632 -5.8076944 1.2525066 0
4.3306932 -5.8315682 1.2670023 0
-5.9267874 -5.7147641 1.2533593 0
-3.1202013 -5.7353439 1.2207407 0
-3.0665855 -5.7279787 1.2658378 0
-0.92287898 -5.7322221 1.2884226 0
-0.85620791 -5.7220926 1.2436177 0
1.2456146 -5.7542748 1.2361087 0
1.3171666 -5.719079 1.2197431 0
3.2911294 -5.7287107 1.2119701 0
4.0680904 -5.7270637 1.2474033 0
4.1531763 -5.7312541 1.2539161 0
4.2932315 -5.7446113 1.2198949 0
-6.0294538 -5.6767941 1.2353489 0
-3.0467463 -5.6674724 1.2605518 0
-1.0440958 -5.6421723 1.2642803 0
-0.9549427 -5.6761117 1.2554895 0
-0.87321591 -5.6868572 1.2278311 0
-0.72451574 -5.6790085 1.2572094 0
-0.68208873 -5.6556196 1.2543429 0
1.2647376 -5.6927986 1.2860129 0
-3.0368817 -5.5319157 1.2342309 0
-1.123119 -5.5563259 1.2280002 0
-0.63856542 -5.5522823 1.221717 0
-3.0468645 -5.4681873 1.2305636 0
6.4226685 -5.417201 1.272149 0
-3.0327077 -5.3921528 1.2599556 0
-1.13466 -5.3293457 1.2570645 0
6.322196 -5.2467136 1.2524933 0
6.4607468 -5.268734 1.2772608 0
6.5991173 -5.2355089 1.2164854 0
6.7611008 -5.22649 1.2343422 0
6.8414764 -5.2217302 1.2925967 0
6.2549701 -5.1379833 1.2651162 0
6.7905879 -5.0186706 1.2514198 0
6.2529478 -4.9929094 1.2454982 0
6.7280712 -4.974925 1.2370605 0
-6.0309443 -4.8415666 1.2767919 0
-3.0629563 -4.8519588 1.282342 0
6.3654599 -4.8237381 1.2235866 0
6.596168 -4.8108716 1.2976605 0
6.7075005 -4.895278 1.276036 0
-3.047689 -4.7378721 1.2780439 0
-6.0182424 -4.6862435 1.2725881 0
-5.968194 -4.6703396 1.2629539 0
-5.0126758 -4.6772165 1.2186813 0
-4.8241978 -4.6806321 1.2756206 0
-3.1143851 -4.6940393 1.26103 0
-3.0519414 -4.6905212 1.2326741 0
3.9088526 -3.116271 1.2452731 0
4.0071659 -3.1244564 1.2909231 0
3.8630657 -3.0797062 1.250697 0
3.9942529 -3.0963173 1.2412323 0
4.0800509 -2.9510484 1.242449 0
4.2543154 -2.7950046 1.2868352 0
3.1682174 -2.5218539 1.2207603 0
3.1523237 -2.4916496 1.263052 0
-2.6324248 -2.2168655 1.2496313 0
-2.5728846 -2.2540689 1.2229036 0
3.3399439 -2.2346125 1.2754753 0
-2.2204435 -2.1453061 1.2170196 0
-6.0019484 -1.9004922 1.2001504 0
-5.0399418 -1.842975 1.2282262 0
-5.0219469 -1.7561306 1.2562414 0
5.7099271 -0.82537746 1.2832992 0
5.8237114 -0.86009395 1.2346395 0
5.7747583 -0.74137592 1.2720054 0
5.8203015 -0.75918078 1.2962252 0
4.8969793 -0.3170805 1.2709867 0
4.9640288 -0.2231493 1.2496582 0
5.0469146 -0.1645087 1.2311462 0
-5.1930056 0.83461672 1.2383131 0
-6.1104674 1.0956531 1.2045395 0
-5.2085962 1.0844839 1.2982116 0
-5.3824973 1.1368351 1.2639333 0
-5.2331328 1.1301854 1.2742251 0
1.8736072 4.2860088 1.2338005 0
2.3888021 4.2832022 1.2968313 0
4.6256695 4.2759356 1.2121481 0
4.7580819 4.2751012 1.2182857 0
4.8098664 4.2731771 1.2253537 0
1.8136169 4.3263283 1.2265474 0
4.8054657 4.3326902 1.2553853 0
-1.4050955 4.4993548 1.2099636 0
-1.3007665 4.4949532 1.2678294 0
-1.2147436 4.4979582 1.2327869 0
-1.1862807 4.4980226 1.2542343 0
4.8479595 4.4122553 1.2485059 0
-4.1559763 4.5184832 1.2348748 0
-4.0602784 4.5180731 1.2789842 0
-2.8102589 4.570178 1.2779715 0
-1.2219418 4.5126724 1.222755 0
-1.1850835 4.5579906 1.2697859 0
1.8192213 4.5391674 1.2167113 0
4.8206606 4.8130336 1.2814207 0
-1.1718616 5.3392558 1.2831255 0
-4.1740313 5.4521666 1.2141151 0
-1.1851201 5.4798899 1.2933933 0
9.0341177 8.857172 1.2878577 0
9.028141 8.9355135 1.276118 0
-8.9397907 9.0263081 1.2570186 0
3.0661163 -9.1467609 1.3609542 0
3.1134892 -9.1443825 1.3463086 0
-8.1702518 -9.0139065 1.3940948 0
-5.5484667 -9.044879 1.3448582 0
5.3392949 -9.0457993 1.3193804 0
5.642736 -9.0374689 1.3713633 0
5.7924991 -9.0608749 1.3438476 0
7.548213 -9.0725861 1.3314993 0
7.7386508 -9.0545731 1.3401436 0
8.0611572 -9.0537453 1.3926421 0
8.9991446 -9.0632324 1.3640361 0
9.0155773 -9.062788 1.3741528 0
-9.0427923 -8.949152 1.3519325 0
9.0144644 -8.6710272 1.3326988 0
9.030117 -7.3349824 1.3018357 0
9.0092068 -7.2647057 1.3726232 0
-9.1057816 -7.0066705 1.3538846 0
4.3385139 -6.825964 1.343598 0
1.1890519 -6.758585 1.3159355 0
1.2388327 -6.7329154 1.3585643 0
3.8824179 -6.7276225 1.3740164 0
4.2774959 -6.7375021 1.3722234 0
4.3105783 -6.7573752 1.3350267 0
1.244117 -6.6702299 1.3249971 0
4.2916574 -6.6090536 1.3869464 0
1.2397879 -5.8156815 1.3481641 0
4.3188844 -5.8567677 1.3724304 0
-5.9128151 -5.7090583 1.359651 0
-3.1134114 -5.7546954 1.3048899 0
-3.0735621 -5.7202005 1.3594656 0
-0.92538977 -5.7281055 1.3800597 0
-0.87580943 -5.7172303 1.339131 0
1.197408 -5.771347 1.3738256 0
1.2627883 -5.7486463 1.3643547 0
1.3040032 -5.7219081 1.3679687 0
1.6959221 -5.7122059 1.3993044 0
4.2567115 -5.7365193 1.3318164 0
4.3139772 -5.7895079 1.3419988 0
-3.1059206 -5.693532 1.3234057 0
-3.0576234 -5.668344 1.3459857 0
-1.0265911 -5.6315627 1.3737335 0
-0.97952539 -5.6498919 1.3606941 0
-0.84091604 -5.6756525 1.3443792 0
-0.71741742 -5.6565766 1.3683701 0
-0.67554229 -5.6310887 1.3463296 0
-3.0556412 -5.5689979 1.3284652 0
-1.1068648 -5.5699296 1.3086149 0
-1.132218 -5.4178696 1.330241 0
-0.60283917 -5.4919634 1.3245279 0
-0.57982361 -5.4341817 1.3432113 0
6.4793582 -5.4221611 1.3580738 0
6.5395446 -5.455657 1.3437822 0
-1.1293474 -5.3661809 1.3777735 0
6.4773636 -5.3859529 1.329154 0
-1.0916598 -5.2902145 1.3624063 0
6.3348522 -5.2515416 1.3481678 0
6.6582255 -5.2525268 1.3236299 0
9.0521755 -5.201623 1.3559668 0
6.2978039 -5.1776962 1.3589225 0
6.551549 -5.1121259 1.3561301 0
6.8402019 -5.1649041 1.3346115 0
6.6299572 -5.0964298 1.3722831 0
6.779973 -5.0109959 1.3691893 0
6.3317652 -4.8666687 1.3321164 0
6.6190553 -4.8103018 1.3992157 0
-3.1705284 -4.7007666 1.3199959 0
-3.0507028 -4.7722096 1.376613 0
-5.9817152 -4.668541 1.3206908 0
-5.6795921 -4.6684971 1.3371576 0
-5.5643873 -4.6598849 1.3322586 0
-5.3452454 -4.6735063 1.31753 0
-5.1370549 -4.6711645 1.3010843 0
-5.0376711 -4.6665249 1.3103633 0
-3.2273369 -4.6770892 1.310182 0
-3.0824475 -4.6861334 1.3341182 0
3.8704128 -3.0377281 1.3537451 0
3.9798057 -3.0601819 1.3647702 0
3.7747376 -2.9378676 1.3781078 0
-2.5687916 -2.225409 1.3886962 0
-2.2122421 -2.1201487 1.3862306 0
3.4378777 -2.1344838 1.3193101 0
3.4865522 -2.0716252 1.300023 0
-5.1102157 -1.8539882 1.3606637 0
-5.0260406 -1.816855 1.3081545 0
-5.0376754 -1.7578135 1.3523706 0
-5.0549545 -1.6376944 1.3810458 0
-5.0362816 -1.5368791 1.3299327 0
5.7996054 -0.81997252 1.3197711 0
5.7776966 -0.75376147 1.3160335 0
5.125144 -0.22797346 1.345857 0
5.0022168 -0.1789548 1.3384398 0
-5.1707554 0.73178017 1.3832206 0
-5.2042942 0.97285271 1.306813 0
-5.2254353 1.0666313 1.3087499 0
-5.2095542 1.1381439 1.3263775 0
4.7275882 4.2718291 1.3349768 0
4.8098588 4.2673054 1.3771472 0
2.111505 4.3152528 1.3346922 0
-1.2084026 4.5009952 1.3243427 0
-1.1857333 4.6855302 1.3271853 0
-1.1875052 4.7678509 1.392712 0
1.8409001 5.2793341 1.324898 0
-1.1433902 5.3156862 1.349933 0
-1.2433658 5.4949484 1.3837706 0
-1.1858324 5.4546728 1.3446349 0
9.0435362 8.7110682 1.3953178 0
9.0347939 8.8385973 1.3483237 0
8.8757935 8.9391565 1.3664591 0
8.9722595 8.9475327 1.3631713 0
9.0307922 8.9303188 1.3506788 0
-8.9408464 9.0442371 1.3618971 0
-8.8379087 9.0423546 1.3513641 0
8.9814997 -9.0445795 1.4404706 0
9.0155201 -9.0602551 1.4743164 0
-9.0354738 -8.9584284 1.4538523 0
-9.0358238 -8.8689346 1.414946 0
-5.2313356 -8.8076897 1.4481084 0
9.0124979 -7.1363735 1.4308451 0
4.3318424 -6.8121786 1.4529576 0
9.0222092 -6.8848939 1.4699454 0
1.2463427 -6.7234282 1.4670079 0
4.257503 -6.7362738 1.4508286 0
4.3115664 -6.7604818 1.4424868 0
1.2870457 -6.6317072 1.4742715 0
4.2835531 -6.6625295 1.4900347 0
1.2763395 -6.5962696 1.4334102 0
4.2647772 -6.5189652 1.4020877 0
9.0531807 -6.1733298 1.426959 0
4.3051734 -5.9807148 1.4129585 0
4.2827725 -5.8228326 1.4684337 0
4.3218527 -5.8439894 1.4420784 0
-3.1023841 -5.7355423 1.4047332 0
-3.0678413 -5.7063303 1.4681399 0
-0.90594363 -5.7133322 1.4689332 0
1.2636422 -5.734035 1.4573176 0
1.3175728 -5.7104988 1.4458177 0
1.7551618 -5.7080946 1.4365551 0
2.0141482 -5.7025652 1.408044 0
3.9815059 -5.7168303 1.4064096 0
4.277719 -5.74682 1.4603995 0
4.3080606 -5.7663779 1.4514532 0
-6.0239506 -5.6983042 1.4419376 0
-5.8475223 -5.6988001 1.4938971 0
-3.0497243 -5.6818986 1.4482689 0
-1.0449635 -5.6064692 1.4650574 0
-0.96536607 -5.6605744 1.4314291 0
-0.88120097 -5.6626906 1.4424781 0
-0.74166656 -5.6610885 1.4631048 0
-0.67170715 -5.6112418 1.4570484 0
-3.0413902 -5.5416951 1.4435506 0
-1.1023221 -5.5678005 1.4022766 0
-1.0637282 -5.5758057 1.4731824 0
-0.65755212 -5.5927606 1.4512669 0
-1.1151943 -5.4372358 1.4599296 0
-0.61284465 -5.466856 1.4424143 0
6.4779968 -5.4216738 1.428055 0
-1.1585722 -5.3911729 1.4564817 0
-0.57109082 -5.3628163 1.4395556 0
6.3718538 -5.3809299 1.4382279 0
6.4689403 -5.39253 1.4632039 0
6.65061 -5.3672743 1.4646271 0
-1.0704398 -5.2750487 1.4849372 0
6.3259883 -5.2255387 1.4563257 0
6.6501575 -5.2569833 1.4104147 0
6.789979 -5.2042055 1.4810928 0
6.8198023 -5.2349501 1.4230137 0
6.2917576 -5.1649761 1.4528191 0
6.5626097 -5.1264911 1.4450499 0
6.8211737 -5.1767254 1.4445333 0
9.0468006 -5.1499686 1.4195006 0
9.045557 -5.0132294 1.458133 0
6.7709112 -4.9835973 1.4537756 0
-3.047138 -4.8418202 1.4520031 0
6.6147928 -4.8079872 1.4706007 0
9.0559731 -4.8532929 1.4950254 0
-3.0524554 -4.7366366 1.4364958 0
-5.0557647 -4.6820745 1.4476719 0
-3.1208849 -4.6896286 1.46734 0
-3.0625031 -4.6898904 1.452724 0
9.0361538 -4.3794603 1.4565254 0
3.9135094 -3.1000745 1.4683216 0
4.00562 -3.1096592 1.4238056 0
3.8709214 -3.060329 1.4772447 0
3.9662645 -3.0726225 1.4503608 0
3.1947868 -2.5064931 1.4307636 0
3.2097788 -2.5122862 1.4361777 0
3.1657624 -2.4790959 1.44602 0
3.2046847 -2.4185994 1.4450866 0
3.2336655 -2.3985994 1.4372522 0
-2.614871 -2.1826642 1.4123383 0
-5.0120993 -1.8159461 1.4231819 0
-5.0232453 -1.7793713 1.4417361 0
5.5942111 -0.98703194 1.4092424 0
5.6224494 -0.9769454 1.4276664 0
4.4304218 -0.88837481 1.4606019 0
5.6758986 -0.88570976 1.4414196 0
5.7988367 -0.84199762 1.4296114 0
5.8109593 -0.83341843 1.4216305 0
5.790349 -0.7754972 1.4904923 0
5.8205986 -0.75775433 1.4131079 0
4.9441433 -0.25355792 1.4818838 0
5.1051517 -0.20424843 1.4210026 0
4.9941254 -0.18956423 1.4086927 0
5.0418596 -0.16693647 1.4531925 0
-5.2056518 1.0493196 1.4207535 0
-5.1831951 1.1304432 1.424244 0
1.850678 4.2918062 1.4394935 0
4.1878242 4.2953568 1.4167525 0
4.7156596 4.2801604 1.467404 0
1.8174292 4.3295259 1.4337707 0
1.9704335 4.3312387 1.4915605 0
2.0060465 4.3142543 1.4768507 0
2.1678987 4.3335876 1.49024 0
4.4911613 4.3212004 1.4246943 0
4.7542739 4.334692 1.4567127 0
4.833178 4.3540292 1.4527354 0
-1.2280911 4.4956403 1.4434605 0
-1.1843014 4.4989505 1.450155 0
-4.1480179 4.5137167 1.4393177 0
-2.0218282 4.5031943 1.4368809 0
-1.3148227 4.5056839 1.4078791 0
-1.2111981 4.5025578 1.4955363 0
-1.1950542 4.5199075 1.4331363 0
1.8381369 4.5808964 1.4674718 0
1.8332171 4.6010838 1.4007417 0
1.8106456 4.8414698 1.4816126 0
4.8087034 5.242424 1.4056312 0
-4.1780596 5.4206028 1.4213177 0
9.0256157 8.9382534 1.4745276 0
-8.9412031 9.0277138 1.4216572 0
-5.6739635 -9.0484772 1.5205994 0
4.972465 -9.0550804 1.5163307 0
6.631022 -9.0553074 1.5609868 0
8.8804789 -9.0398798 1.5519011 0
8.9857044 -9.0439053 1.5663607 0
-9.0556946 -8.9296694 1.5398552 0
1.2531726 -6.7138433 1.5611045 0
4.2739162 -6.7194219 1.5302033 0
4.3278227 -6.7889066 1.5632149 0
1.2699491 -6.6746368 1.5271542 0
4.2851543 -6.6977272 1.5913544 0
1.2889872 -5.9781713 1.5279275 0
1.257894 -5.8550863 1.5030192 0
4.2810903 -5.8617496 1.5766855 0
4.3240871 -5.8625798 1.5260197 0
-3.0709305 -5.7172966 1.5515813 0
1.2581443 -5.7520895 1.5615062 0
1.3826752 -5.7062902 1.5070937 0
4.0475817 -5.7256894 1.5119312 0
4.2777491 -5.7550817 1.5646209 0
4.3016081 -5.7635946 1.5466449 0
-5.9580669 -5.6843634 1.5818543 0
-3.11554 -5.6838503 1.5520597 0
-3.048296 -5.6608329 1.5287879 0
-1.0218487 -5.6135325 1.5523896 0
-0.9497208 -5.6526761 1.5353161 0
-0.87589759 -5.6656351 1.5428243 0
-0.73187 -5.6445584 1.5829885 0
-0.68709129 -5.6173415 1.5576659 0
1.2811694 -5.6861911 1.5792775 0
-3.0450275 -5.5734229 1.5725336 0
-1.05514 -5.5810471 1.5795032 0
-0.65465939 -5.5830889 1.5408103 0
-3.0453467 -5.4663081 1.5701128 0
-0.6056304 -5.4299212 1.5321822 0
-0.56390834 -5.4071965 1.5502304 0
6.4556389 -5.4001045 1.5235733 0
-1.1239535 -5.3808064 1.5358301 0
6.3900504 -5.3548117 1.5491285 0
6.4468322 -5.3802981 1.5340503 0
6.524858 -5.3870273 1.5877259 0
6.3622069 -5.2627473 1.5997629 0
6.65131 -5.2598534 1.5093937 0
-3.0370982 -5.1346684 1.5312655 0
6.2859101 -5.1454802 1.5479411 0
6.3185148 -5.1787567 1.5351877 0
6.5410771 -5.1608 1.5103496 0
6.7964463 -5.1758399 1.5359278 0
6.8096595 -5.1522007 1.5613135 0
-3.0197396 -5.0357265 1.5261139 0
6.570725 -5.0950289 1.538902 0
6.7604842 -4.9815235 1.544142 0
-6.0338736 -4.8202863 1.5568758 0
-3.0430098 -4.8269501 1.5153627 0
-6.0270739 -4.7991652 1.5668794 0
-3.0400298 -4.7418976 1.5266901 0
6.5522389 -4.7848306 1.5651742 0
-5.9831543 -4.6586008 1.5580397 0
-5.2678466 -4.6846476 1.5709847 0
-4.9704938 -4.6829247 1.5565599 0
-3.771647 -4.6798134 1.5842488 0
-3.1028557 -4.695241 1.5045583 0
-3.0647457 -4.6886611 1.5445933 0
3.8791068 -3.021404 1.5468062 0
3.9735756 -3.0423188 1.5520889 0
4.2176218 -2.7383568 1.5779219 0
-5.0208735 -1.8308091 1.5624765 0
-5.0368209 -1.7399665 1.5333796 0
-5.0847983 -0.94990015 1.5950539 0
5.6977148 -0.79892921 1.5337243 0
5.769526 -0.74750942 1.5321878 0
5.804287 -0.76182389 1.5481449 0
4.9468656 -0.2538383 1.5209749 0
5.1179552 -0.23787498 1.5599999 0
-5.1675701 0.49927771 1.5548017 0
-5.181983 0.77664042 1.5639567 0
-5.1968737 0.83314872 1.5346434 0
-5.2112937 1.0382217 1.5217707 0
-5.2365317 1.1452899 1.5359169 0
1.8766963 4.2876921 1.5566409 0
4.7319016 4.2786703 1.5477432 0
1.9006994 4.3134842 1.502232 0
2.8336811 4.3136578 1.5736899 0
4.7766809 4.3828983 1.5780536 0
-1.3628402 4.4964871 1.5175587 0
-4.0649529 4.5208178 1.5271448 0
-1.4294075 4.5526409 1.593008 0
-1.1894302 4.5708389 1.5700816 0
1.8215599 4.5610304 1.5330997 0
-1.1966124 4.6908684 1.5871196 0
1.8376532 4.8954072 1.5542601 0
1.8330474 4.9116659 1.5662965 0
1.8474426 5.0149078 1.5615078 0
-1.1801205 5.1924171 1.5060301 0
1.8434699 5.2834787 1.5401599 0
-1.1829433 5.3970528 1.5934275 0
-1.1862873 5.4560785 1.5757506 0
8.9854469 8.950901 1.5501916 0
9.026144 8.9280367 1.5207669 0
-8.9459219 9.0291395 1.5740894 0
-5.8686371 -9.0276451 1.6306393 0
6.4046459 -9.0546618 1.6070685 0
8.9781885 -9.0267439 1.655457 0
-9.0327787 -8.9425697 1.6405172 0
8.9742241 -8.9974375 1.6522523 0
1.254944 -6.7110615 1.6576388 0
4.2516413 -6.7185626 1.6423725 0
4.3097582 -6.7687225 1.6773956 0
1.2660908 -6.6799474 1.6421576 0
4.2940221 -6.6477823 1.6323628 0
4.3213587 -6.68817 1.6431439 0
1.2872539 -6.5767951 1.6987829 0
4.2829638 -6.5024052 1.6416276 0
4.2592821 -6.350697 1.608987 0
1.2414192 -5.9600496 1.6285175 0
4.2732601 -5.955102 1.6932261 0
1.2591307 -5.8645453 1.674256 0
4.285224 -5.8439951 1.6873157 0
4.3115063 -5.8436527 1.6371686 0
-3.0799141 -5.7166576 1.6448917 0
1.270224 -5.7282701 1.6639004 0
1.3126808 -5.717494 1.6863426 0
1.4146876 -5.7186184 1.6647092 0
1.515841 -5.7020254 1.6237901 0
1.6951936 -5.7061272 1.6213443 0
3.980648 -5.7163734 1.6302387 0
4.1958771 -5.7134614 1.6346599 0
4.2817922 -5.7317386 1.6524336 0
4.321228 -5.7855225 1.6074317 0
-5.8902416 -5.6841583 1.6434702 0
-3.0469239 -5.664114 1.6530179 0
-0.99339581 -5.6651616 1.6479379 0
-0.81997895 -5.6575489 1.6364847 0
1.2795973 -5.6884398 1.6437073 0
1.3044477 -5.6816726 1.6720595 0
-3.0536184 -5.5801167 1.6334844 0
-0.62999219 -5.5181313 1.6161356 0
-3.0455089 -5.4937544 1.6317761 0
-0.58318365 -5.4352269 1.6120226 0
-1.1174552 -5.355505 1.6339848 0
-1.0839638 -5.3954935 1.6294577 0
-0.56224132 -5.3952646 1.6721833 0
6.3959107 -5.3617506 1.6267183 0
6.4348788 -5.3564162 1.6557745 0
6.5141687 -5.3704643 1.6662316 0
6.6418538 -5.2370486 1.6451488 0
6.3265457 -5.1731415 1.6373949 0
6.7901402 -5.1376357 1.6521993 0
6.5239787 -5.063767 1.6262152 0
6.7629418 -5.0043335 1.6431866 0
-3.0495639 -4.8318892 1.63273 0
-3.0409827 -4.7346878 1.6234684 0
-4.2074332 -4.6760664 1.6133881 0
-3.166604 -4.6833043 1.6527909 0
3.8862648 -3.0290995 1.6783714 0
3.9437401 -3.0636306 1.6720047 0
3.2051358 -2.5079789 1.6504483 0
3.1753979 -2.4794271 1.6424162 0
3.2334342 -2.3900938 1.6653553 0
-2.2387824 -2.0008912 1.6741195 0
3.4897537 -2.0699825 1.6902288 0
-5.0630684 -1.8274238 1.6241317 0
-5.2057538 -1.7819896 1.6035618 0
-5.1903224 -1.7769771 1.6186708 0
-5.0364003 -1.7518595 1.633842 0
-5.0480628 -1.6470157 1.6654932 0
