# .PCD v0.7 - Point Cloud Data file format
VERSION 0.7
FIELDS x y z intensity
SIZE 4 4 4 4
TYPE F F F F
COUNT 1 1 1 1
WIDTH 1415
HEIGHT 1
VIEWPOINT 0 0 0 1 0 0 0
POINTS 1415
DATA ascii
3.9018652 4.2717752 0.69055396 0
4.0949912 4.2719698 0.69740278 0
4.2998123 4.2697897 0.71383053 0
4.5040464 4.2672572 0.70305187 0
4.6942339 4.2725143 0.70110005 0
4.8153605 4.3542686 0.69818592 0
8.9971046 4.3417912 0.75463939 0
9.0173025 4.2942743 0.70805216 0
-9.002161 4.4287333 0.71996939 0
-8.9790554 4.4795427 0.70052236 0
-4.0952797 4.5364981 0.68667096 0
-3.8917096 4.5168939 0.68448496 0
-3.7005823 4.5178118 0.69347185 0
-3.4991643 4.5144544 0.67464751 0
-3.304661 4.5122747 0.67737406 0
-3.092875 4.5143223 0.69259202 0
-2.8893514 4.5135288 0.67903602 0
-2.6915629 4.5095873 0.69279402 0
-2.5248141 4.5060234 0.69369763 0
-2.2918043 4.5055475 0.70400995 0
-2.0727491 4.5067663 0.69692719 0
-1.9041331 4.5044618 0.71300668 0
-1.696179 4.5039268 0.72996598 0
-1.4988296 4.5042205 0.72892511 0
-1.3127952 4.4990654 0.74315226 0
-1.1858702 4.5604253 0.73092651 0
1.7738895 4.5195589 0.63000941 0
1.8215916 4.4872074 0.74168855 0
4.8151269 4.5232601 0.72418725 0
8.9930305 4.5000453 0.69197249 0
9.0183592 4.4896278 0.70244431 0
-8.980238 4.6764984 0.69278687 0
-4.1727548 4.7088327 0.67238098 0
-1.1818372 4.6826057 0.72182375 0
1.8237724 4.6962614 0.73962539 0
4.8187809 4.7009234 0.737176 0
9.0199909 4.6883292 0.70706213 0
-8.9772224 4.9026484 0.66728979 0
-4.1714511 4.9120369 0.68650067 0
-1.2022939 4.8621044 0.75057441 0
-1.180384 4.9029517 0.73085797 0
1.7660253 4.996726 0.61100876 0
1.8270915 4.9092736 0.72722846 0
4.8195324 4.896944 0.72934783 0
9.021534 4.8984098 0.72514188 0
-9.0006638 5.1659312 0.70273846 0
-8.9770708 5.0893383 0.68493444 0
-4.1711721 5.1032987 0.67788035 0
-1.2182109 5.1572781 0.69619751 0
-1.1807842 5.1165085 0.716429 0
1.8256325 5.1057253 0.71614212 0
4.8185797 5.098094 0.73256058 0
8.995882 5.1939597 0.65194595 0
9.0217457 5.0878983 0.71565109 0
-9.0008688 5.2982244 0.63746953 0
-8.9743719 5.3009739 0.67143238 0
-7.4030666 5.2173877 0.69320571 0
-7.2837486 5.2673907 0.68241316 0
-4.1716118 5.3156986 0.66733688 0
-1.20365 5.2948933 0.73312074 0
-1.1799805 5.3074632 0.728567 0
1.8864094 5.278914 0.67632389 0
2.0960605 5.2844176 0.69951397 0
2.282424 5.2841959 0.69871831 0
2.4937773 5.2806373 0.70927471 0
2.6989055 5.2800379 0.7213921 0
2.893455 5.2784452 0.71018308 0
3.1048033 5.2792616 0.69569749 0
3.2908647 5.277966 0.70062935 0
3.4795368 5.2762475 0.70269632 0
3.6931241 5.2764239 0.70268309 0
3.8888538 5.2743959 0.6950658 0
4.0949321 5.2732897 0.70617783 0
4.279038 5.2717452 0.71487498 0
4.4868283 5.272438 0.70460433 0
4.6935086 5.2690082 0.70062643 0
4.8249493 5.2422757 0.73380929 0
9.023984 5.2973971 0.71447736 0
-9.0029469 5.4394159 0.77404845 0
-8.9738321 5.5002909 0.6854462 0
-7.5021291 5.4710612 0.67012906 0
-7.2660537 5.5488977 0.62400454 0
-7.1704955 5.4769769 0.6543656 0
-4.1300731 5.483398 0.66909379 0
-3.9075866 5.5176754 0.66743666 0
-3.6796916 5.5156507 0.70133752 0
-3.4754593 5.5134768 0.69180959 0
-3.3095589 5.5136313 0.65500033 0
-3.1064188 5.5124626 0.68580985 0
-2.8925762 5.5126381 0.70054305 0
-2.6910942 5.5097723 0.71824211 0
-2.5044408 5.510056 0.68951631 0
-2.3087261 5.5086908 0.67642319 0
-2.0901048 5.5061054 0.67966723 0
-1.9199096 5.5055389 0.68089497 0
-1.7152251 5.5045624 0.68010795 0
-1.502591 5.5018439 0.70273632 0
-1.31962 5.5040874 0.70437163 0
-1.1780897 5.4462528 0.71271706 0
9.0222845 5.5008373 0.71876466 0
-8.9709263 5.6984401 0.69052166 0
9.0252609 5.702209 0.7243287 0
-8.9724474 5.8954444 0.68447566 0
8.9993792 5.9646897 0.60776913 0
9.0262165 5.9100523 0.73621172 0
-8.9712696 6.1071448 0.68820238 0
9.0273905 6.1136694 0.71967596 0
-9.0268097 6.2206969 0.77501988 0
-8.9684629 6.2974405 0.69487679 0
9.0303526 6.2834816 0.728203 0
-9.0138512 6.590404 0.74140811 0
-8.9682369 6.5127034 0.69089895 0
9.0334244 6.4862661 0.70829278 0
-9.0179291 6.7309284 0.76727319 0
-8.9688902 6.6966305 0.69062561 0
6.7375569 6.7633948 0.63496369 0
6.9205532 6.6088266 0.64479613 0
7.095921 6.79285 0.69682807 0
9.0304174 6.7181067 0.70452249 0
-9.0098171 6.9149742 0.74885905 0
-8.9667263 6.9013314 0.68026799 0
6.7242279 6.8597245 0.68146503 0
6.8881836 6.8376908 0.71251804 0
7.0711284 6.8258214 0.71720201 0
9.0325613 6.8952904 0.70200998 0
-9.0195065 7.1230373 0.73342824 0
-8.9639826 7.1053457 0.68074256 0
6.7874165 7.0584378 0.62819475 0
6.8783946 7.0953393 0.63878495 0
9.0357275 7.0996318 0.70289499 0
-9.0141544 7.312994 0.71456444 0
-8.9644279 7.3056712 0.69054735 0
9.0334644 7.30194 0.68094331 0
-9.0145683 7.5190811 0.69982219 0
-8.9626312 7.4985552 0.69534045 0
9.0338488 7.4970837 0.68912691 0
-9.0147352 7.7175846 0.68027961 0
-8.9626188 7.6952567 0.69601035 0
9.0370617 7.6842842 0.69055468 0
-9.0044422 7.9202509 0.66636276 0
-8.962307 7.8941684 0.69384176 0
9.0369396 7.8847876 0.69357985 0
-9.0094166 8.0555563 0.69195747 0
-8.9599047 8.0841618 0.70011169 0
9.0389032 8.0999079 0.68990248 0
-9.0085325 8.2710161 0.61595869 0
-8.958189 8.2819042 0.69109583 0
9.0410957 8.3103552 0.7066943 0
-9.0035515 8.4710655 0.65889525 0
-8.9575243 8.4872274 0.69207233 0
9.0423365 8.5167017 0.68584621 0
-8.9569931 8.6946487 0.70760602 0
9.0424471 8.7095633 0.6868484 0
-9.000988 8.900466 0.62526274 0
-8.9572611 8.8983965 0.70502359 0
-7.7474337 8.9992714 0.76791072 0
-7.4304323 8.9951935 0.75319594 0
-7.1218452 8.9975071 0.73879814 0
-3.7452168 8.9924679 0.70037973 0
-2.4859369 8.9977283 0.68246716 0
-2.344835 8.9945898 0.66755193 0
-2.0732923 8.9993448 0.67315471 0
-1.8846941 8.9962749 0.73479706 0
-1.6660626 8.9989109 0.67267907 0
-1.5060624 8.9859819 0.70620966 0
-1.2917024 8.9945154 0.71350205 0
-1.0944709 8.9944878 0.70295686 0
-0.9003194 8.9949455 0.73077482 0
-0.69893503 8.9940119 0.71338129 0
-0.49711847 8.9965725 0.73513174 0
-0.28245908 8.9946098 0.70645523 0
-0.087412536 8.9947691 0.72654098 0
0.088504009 8.9934158 0.7084589 0
0.2888222 8.9932661 0.73417586 0
0.48983338 8.992403 0.69889504 0
0.70674318 8.9922218 0.7048384 0
0.9190281 8.9901848 0.70253813 0
1.106939 8.9888248 0.69427532 0
1.3091712 8.9875488 0.70007324 0
1.4986118 8.988802 0.69813806 0
1.6835257 8.9855385 0.67994523 0
1.8906708 8.9870052 0.67611009 0
2.0850353 8.9839792 0.69462419 0
2.2881041 8.9844942 0.68749899 0
2.4879866 8.9828424 0.67941272 0
2.6991565 8.9823389 0.70716828 0
2.8985665 8.9810543 0.71408403 0
3.1123033 8.9802628 0.70307302 0
3.3051817 8.9782991 0.71656227 0
3.510808 8.9780159 0.71016157 0
3.6929984 8.9766617 0.69889581 0
3.8976543 8.9767199 0.7012375 0
4.1050506 8.9741859 0.71077585 0
4.2986588 8.9742556 0.7023263 0
4.4927688 8.9723816 0.70777708 0
4.6976252 8.9705906 0.69689173 0
4.8951268 8.9702253 0.71216458 0
5.07833 8.9695168 0.7042852 0
5.2875619 8.9672642 0.6864596 0
5.5095248 8.9653006 0.70227408 0
5.7114034 8.9656658 0.72695917 0
5.8868766 8.9629688 0.69924861 0
6.0942874 8.9623308 0.7014035 0
6.2910886 8.9627237 0.70711929 0
6.4892216 8.9606342 0.69302505 0
6.701117 8.9608297 0.72111166 0
6.8910351 8.9592342 0.70583057 0
7.0970268 8.95963 0.73266667 0
7.3042889 8.9590073 0.72721404 0
7.5166588 8.955617 0.72353673 0
7.7087865 8.9559622 0.70306742 0
7.8968954 8.9550314 0.70981377 0
8.0821247 8.9515009 0.71950674 0
8.2872868 8.9536781 0.71686786 0
8.494915 8.9532948 0.68494904 0
8.7024431 8.9491158 0.67446357 0
8.8986912 8.9490242 0.68559724 0
9.0382223 8.871563 0.68168378 0
-8.8844748 9.0412483 0.70214307 0
-8.7074251 9.04144 0.70054919 0
-8.5138922 9.0428696 0.69538444 0
-8.3223343 9.0386982 0.6962319 0
-8.1051149 9.0376225 0.70238799 0
-7.9107623 9.0382271 0.69560105 0
-7.697526 9.0374546 0.67070246 0
-7.4820256 9.0386305 0.69924653 0
-7.2904391 9.0362873 0.69378746 0
-7.0874109 9.0374746 0.69391358 0
-6.9075699 9.0351763 0.70325887 0
-6.6919971 9.0358171 0.69938803 0
-6.4957857 9.0334301 0.69303972 0
-6.3018899 9.0323286 0.69302648 0
-6.1066828 9.0298538 0.69939971 0
-5.8927164 9.0275726 0.69527531 0
-5.6913271 9.0274954 0.69042993 0
-5.4898777 9.0265617 0.68687212 0
-5.3001051 9.0251341 0.67674482 0
-5.0994015 9.0234518 0.68916595 0
-4.8817348 9.0231047 0.68966377 0
-4.6938467 9.0238638 0.70089382 0
-4.4915757 9.0204668 0.70972127 0
-4.2935872 9.0206318 0.70100325 0
-4.1001992 9.0165339 0.71645027 0
-3.9090762 9.0195532 0.72453278 0
-3.7030973 9.0178967 0.71702367 0
-3.5017138 9.0150633 0.70480746 0
-3.2928019 9.0148172 0.70020211 0
-3.0967867 9.0101814 0.68810266 0
-2.905791 9.01406 0.693317 0
-2.6937699 9.0117826 0.67176038 0
-2.5098259 9.0098085 0.68704945 0
-2.3092961 9.0094547 0.67587554 0
-2.1117675 9.0090885 0.684156 0
-1.8968678 9.0108862 0.68978691 0
-1.6949248 9.0067959 0.6966036 0
-1.5006981 9.0091028 0.69940156 0
-1.3174223 9.0054302 0.72503358 0
-1.0975413 9.006875 0.72475058 0
-0.90418088 9.0060577 0.68571246 0
-0.70736027 9.0041533 0.70523822 0
-0.49641916 9.003334 0.70818466 0
-0.32008654 9.0047264 0.74357712 0
-0.10500471 9.0043449 0.69804209 0
0.087650679 9.0023613 0.75445807 0
0.27524558 9.0025997 0.74273396 0
0.47557801 9.0023031 0.77637136 0
0.632074 9.0043259 0.74931413 0
0.82199514 9.0018921 0.73260689 0
1.1335595 9.0004463 0.79247028 0
-9.0627584 -9.0105276 0.82832551 0
-8.9841223 -9.0048313 0.85077477 0
-8.5294628 -9.0000572 0.8214767 0
-8.2736626 -9.0693398 0.85759908 0
-8.0722218 -9.0032368 0.80580676 0
-7.9237504 -9.005661 0.81785232 0
-7.5225401 -9.0266399 0.88174605 0
-7.2234578 -9.0573006 0.90943813 0
-7.0615578 -9.0298138 0.90349686 0
-6.9054813 -9.0039444 0.86890256 0
-6.6858988 -9.0039387 0.88510561 0
-6.4844103 -9.0060673 0.88409352 0
-6.3229952 -9.0186644 0.86829764 0
-6.0640182 -9.0163717 0.85219115 0
-5.8568263 -9.0472832 0.82291257 0
-5.6640983 -9.0401087 0.93563718 0
-5.5103216 -9.041007 0.88698351 0
-5.279726 -9.0489426 0.93215847 0
-5.0884995 -9.0334635 0.91398698 0
-4.8814278 -9.034646 0.92355114 0
-4.7133179 -9.0403013 0.92275584 0
-4.4974093 -9.0378914 0.92209697 0
-4.3123531 -9.0330305 0.9030804 0
-4.0635533 -9.0221987 0.90917748 0
-3.8892717 -9.0293989 0.92317271 0
-3.6774476 -9.0341587 0.88524723 0
-3.5017624 -9.0260105 0.88518596 0
-3.29024 -9.0308914 0.86451823 0
-3.0937567 -9.0168581 0.84826028 0
-2.8786829 -9.0541048 0.87681633 0
-2.6949124 -9.0315466 0.87656718 0
-2.4942217 -9.0687094 0.8734799 0
-2.2901788 -9.0577421 0.89154083 0
-2.1048169 -9.0446787 0.92546523 0
-1.9155339 -9.0459623 0.90537906 0
-1.6983421 -9.0473833 0.88929206 0
-1.5219032 -9.0386333 0.90168113 0
-1.2946576 -9.0391197 0.89898407 0
-1.1027712 -9.0399456 0.90778327 0
-0.89647126 -9.039485 0.89482254 0
-0.71214646 -9.036808 0.88949394 0
-0.49914697 -9.0463982 0.89855599 0
-0.28253669 -9.038271 0.87988937 0
-0.11159596 -9.0440731 0.87937617 0
0.088189796 -9.0545712 0.876369 0
0.29365066 -9.0630026 0.8738749 0
0.5025214 -9.0470705 0.87531132 0
0.7243067 -9.0598888 0.88532448 0
0.89778876 -9.0536098 0.8879841 0
1.1256626 -9.0617094 0.88206756 0
1.3245125 -9.0533972 0.88169795 0
1.5208478 -9.0569363 0.88335586 0
1.6957797 -9.0628977 0.86529338 0
1.8980857 -9.0683451 0.8906818 0
2.0912561 -9.0645876 0.89030343 0
2.2947962 -9.0656557 0.90232652 0
2.48195 -9.0610952 0.85405719 0
2.6739047 -9.0664244 0.89204663 0
2.8832722 -9.0621347 0.9125157 0
3.0856068 -9.0679331 0.90430307 0
3.282995 -9.072794 0.9092561 0
3.4782476 -9.0825825 0.89381456 0
3.6916482 -9.0836773 0.88326693 0
3.8755732 -9.0808792 0.88418436 0
4.0835481 -9.080369 0.88393372 0
4.2767239 -9.0891161 0.88589907 0
4.4848113 -9.071619 0.93580008 0
4.6779771 -9.084528 0.92026228 0
4.878119 -9.0741282 0.91931731 0
5.0653424 -9.0860786 0.92827886 0
5.2921638 -9.0901108 0.89858198 0
5.521872 -9.0786886 0.9042877 0
5.696095 -9.0765982 0.89693451 0
5.8883562 -9.0673122 0.89078629 0
6.0767241 -9.0853863 0.8767882 0
6.2795939 -9.0600195 0.90685838 0
6.4945121 -9.0748663 0.90934497 0
6.6940498 -9.0682497 0.88715506 0
6.8551903 -9.0633841 0.92472619 0
7.0606112 -9.0791559 0.89765376 0
7.2885299 -9.0726376 0.92160398 0
7.4659271 -9.0855246 0.91754913 0
7.7128525 -9.0558138 0.92533159 0
7.8979993 -9.0794477 0.91135865 0
8.053793 -9.0751686 0.91189259 0
8.2788515 -9.0547066 0.90942472 0
8.462018 -9.075222 0.91610408 0
8.6710062 -9.0814371 0.91253507 0
8.8982172 -9.0427151 0.89018881 0
9.0056553 -9.0098362 0.9358902 0
-9.0624704 -8.8836393 0.91855395 0
-8.9366884 -8.963583 0.905671 0
-8.7200775 -8.9694061 0.91648471 0
-8.5182867 -8.965601 0.91516328 0
-8.3221445 -8.9701891 0.91694885 0
-8.1175671 -8.9718866 0.88895476 0
-7.9169126 -8.971776 0.90339637 0
-7.7193246 -8.9731941 0.89657617 0
-7.5080366 -8.9758663 0.89583021 0
-7.3113852 -8.9755163 0.90336555 0
-7.1134987 -8.9761229 0.88616818 0
-6.9233384 -8.9733868 0.89086664 0
-6.7259002 -8.9765158 0.88539582 0
-6.5210161 -8.977231 0.88648033 0
-6.3048067 -8.9755182 0.89553899 0
-6.0876846 -8.9726992 0.90173864 0
-5.9025364 -8.9787998 0.90525776 0
-5.7119527 -8.9782429 0.90080291 0
-5.5145731 -8.9693222 0.90322554 0
-5.3005452 -8.9802485 0.89919192 0
-5.1156321 -8.9809399 0.91148478 0
-4.903398 -8.9800034 0.88391399 0
-4.6926827 -8.9797497 0.89494717 0
-4.5139174 -8.9822474 0.90860885 0
-4.2977347 -8.9821968 0.909545 0
-4.1124682 -8.9847002 0.90392703 0
-3.8849196 -8.9855957 0.8876341 0
-3.6933074 -8.9740095 0.89926738 0
-3.5345538 -8.9849968 0.86970139 0
-3.3092058 -8.9853811 0.87626773 0
-3.0935197 -8.9874964 0.88039684 0
-2.8798628 -8.9768744 0.8893643 0
-2.7010081 -8.9860668 0.87466115 0
-2.5035675 -8.9756756 0.89550817 0
-2.2844906 -8.9778843 0.89444071 0
-2.0884721 -8.9907064 0.8882004 0
-1.8886869 -8.9813128 0.880804 0
-1.6746464 -8.990797 0.89004183 0
-1.5215893 -8.9915323 0.86990654 0
-1.3152949 -8.9947166 0.89003348 0
-1.0833898 -8.9845009 0.89346784 0
-0.9065842 -8.9732122 0.88220227 0
-0.68334752 -8.9952974 0.85625958 0
-0.50075835 -8.9808264 0.85572886 0
-0.31477475 -8.9921999 0.86212367 0
-0.061056446 -8.9846897 0.85162413 0
0.1267482 -8.8364544 0.90645802 0
0.2785368 -8.997488 0.81308997 0
0.58738089 -8.9346123 0.89111829 0
0.67953384 -8.8360529 0.87669975 0
1.2017946 -8.9957123 0.86774337 0
8.925559 -8.8821745 0.88002169 0
9.0061445 -8.904192 0.92275304 0
-9.0555868 -8.6998482 0.88107657 0
-8.9737606 -8.7172642 0.89918554 0
-6.0767078 -8.7338696 0.89006627 0
-5.6855059 -8.7205515 0.98989415 0
-4.8882356 -8.7321386 0.9541322 0
-3.0558512 -8.6578293 0.99871445 0
-2.9161489 -8.7062607 0.85379022 0
-2.6363745 -8.6575546 0.97938573 0
-2.5011916 -8.7193174 0.97653627 0
-2.3591599 -8.6859598 0.82506704 0
-1.9293725 -8.6764717 0.80412704 0
-0.8059485 -8.7404976 0.84427392 0
-0.69335663 -8.6502771 0.82577503 0
0.28066766 -8.7098026 0.88411129 0
8.9336805 -8.6843119 0.86343849 0
9.0018969 -8.798584 0.90967345 0
-9.0575609 -8.511198 0.91237926 0
-8.9750967 -8.5084391 0.96069431 0
-6.098772 -8.5814486 0.87641954 0
-5.8681889 -8.5610886 0.99384201 0
-4.939682 -8.5563984 0.93937218 0
-3.2340827 -8.4762526 0.99022758 0
-3.1424096 -8.516777 0.98802155 0
-2.7428012 -8.4857273 0.96556056 0
-2.5097699 -8.5707321 0.8924706 0
0.63266659 -8.4965382 0.99328077 0
8.9233913 -8.4931097 0.88583344 0
9.0054035 -8.4226427 0.86042726 0
-9.0620337 -8.3042364 0.91359323 0
-8.9811563 -8.3129835 0.95164543 0
-6.1303139 -8.3782425 0.85770434 0
-3.8604488 -8.2745285 0.99938971 0
-3.3251884 -8.272541 0.97324914 0
-2.8961425 -8.2948761 0.95365679 0
-2.7872972 -8.3715868 0.95605737 0
0.57211685 -8.3137007 0.96570486 0
0.62106276 -8.3736334 0.98652673 0
8.9251289 -8.2926512 0.87997949 0
9.0044308 -8.2206135 0.83305502 0
-9.0508204 -8.1047001 0.92320901 0
-8.9785261 -8.1351719 0.93030387 0
-6.1322799 -8.1722651 0.83950233 0
-3.929327 -8.1440353 0.99054623 0
-3.4240718 -8.0828266 0.95694387 0
-3.3869762 -8.137619 0.96261853 0
-3.0391135 -8.0167065 0.93217182 0
-2.9645047 -8.1093569 0.93801081 0
0.53991699 -8.1090317 0.93232507 0
8.9351664 -8.1087751 0.94079185 0
9.0039282 -8.1087084 0.90079403 0
-9.0545216 -7.8890285 0.92409682 0
-8.981987 -7.9144135 0.90852469 0
-7.1190901 -7.90096 0.9863286 0
-6.157361 -7.9679441 0.81993318 0
-4.0354605 -7.9090161 0.97439289 0
-3.4661794 -7.9447374 0.94915307 0
-3.0711937 -7.9195943 0.92606121 0
0.50831288 -7.9063478 0.8941229 0
8.9385214 -7.9059858 0.90513033 0
9.0080643 -7.9115677 0.97468126 0
-9.0546255 -7.6825805 0.92052525 0
-8.9695187 -7.6992664 0.88388884 0
-7.1190758 -7.6696582 0.96588862 0
-6.1562824 -7.7623992 0.80086666 0
-4.8094244 -7.7638416 0.99980861 0
-4.080646 -7.6954417 0.95508277 0
-3.5674257 -7.6658716 0.92597204 0
-3.1774864 -7.6917448 0.9083482 0
0.48722807 -7.723578 0.8623929 0
8.9501276 -7.7226868 0.92896479 0
9.0132828 -7.6689329 0.95789593 0
-9.0475235 -7.4904881 0.90768683 0
-8.9676991 -7.4832373 0.90181226 0
-7.1348453 -7.5160737 0.95130897 0
-4.837636 -7.5970669 0.98344743 0
-4.1085796 -7.5022812 0.93695331 0
-3.6016014 -7.4559813 0.90643334 0
-3.5935538 -7.5133939 0.91196674 0
-3.2347207 -7.4564161 0.88458061 0
0.46012032 -7.5244498 0.82775098 0
8.9477377 -7.4755387 0.91254997 0
9.0102682 -7.5217929 0.92318898 0
-9.0575171 -7.3004642 0.8884781 0
-8.9683447 -7.2512817 0.88535845 0
-7.1380644 -7.3104897 0.93204159 0
-4.8582988 -7.3158097 0.95634389 0
0.46981382 -7.3876143 0.80866194 0
2.4590402 -7.2754831 0.97562885 0
8.9468155 -7.3082275 0.93345851 0
9.0019569 -7.3963032 0.88033766 0
-9.0560379 -7.0831771 0.90354967 0
-8.9823513 -7.0366807 0.87370455 0
-7.1194153 -7.1055317 0.91314721 0
-6.0036516 -7.0735607 0.99117535 0
2.4607892 -7.1229095 0.96354342 0
8.9528179 -7.0857749 0.89903003 0
9.0038681 -7.1919885 0.86667395 0
-9.0520096 -6.886219 0.89854991 0
-8.9763336 -6.9052544 0.83884513 0
-7.1193047 -6.8999257 0.89296877 0
-6.0094295 -6.8552856 0.96774971 0
2.4769676 -6.8022738 0.83302867 0
2.8773985 -6.8132825 0.82184887 0
3.1311669 -6.8027539 0.84283948 0
3.2880359 -6.8096962 0.83543468 0
3.732168 -6.8135638 0.86582237 0
3.9951081 -6.80054 0.82095098 0
4.0943875 -6.8098969 0.83738428 0
4.6401739 -6.8667097 0.81550604 0
8.9542646 -6.8783474 0.90518343 0
9.0048742 -6.9709802 0.90511942 0
-9.0504389 -6.7033172 0.89499396 0
-7.0915122 -6.696166 0.87350333 0
-5.9970484 -6.7102985 0.95272189 0
1.1701566 -6.6626778 0.92925382 0
1.2932318 -6.722548 0.89707643 0
1.4989371 -6.7724409 0.91641814 0
1.7044214 -6.7699995 0.91980129 0
1.9285926 -6.768796 0.91175818 0
2.1040163 -6.7697287 0.90576965 0
2.2943063 -6.7613659 0.92299312 0
2.4923956 -6.7754149 0.90731561 0
2.693119 -6.7715335 0.90561789 0
2.8880274 -6.7708764 0.9155274 0
3.0994065 -6.7775216 0.90397519 0
3.2810762 -6.7651682 0.92072546 0
3.492018 -6.7717605 0.88016361 0
3.7167261 -6.774744 0.87860131 0
3.9119143 -6.7747221 0.90644836 0
4.1054382 -6.7746224 0.91377312 0
4.2826233 -6.7278175 0.88270867 0
8.9481077 -6.7167854 0.93688154 0
9.0040417 -6.7567 0.95266747 0
-9.0534086 -6.4974694 0.90026873 0
-8.9814138 -6.5849433 0.81578463 0
-7.0727134 -6.4916329 0.8531028 0
1.1805671 -6.5048628 0.91274917 0
1.2297127 -6.4946604 0.90370208 0
4.3066754 -6.5209675 0.88454479 0
4.4044495 -6.4325175 0.9785217 0
8.9615059 -6.5156851 0.91055489 0
9.0109558 -6.5877647 0.88988185 0
-9.0498676 -6.2897325 0.87772489 0
-7.0357203 -6.2896242 0.83312702 0
1.1800231 -6.3111343 0.89415216 0
1.2272749 -6.3001962 0.91296524 0
4.3090773 -6.3144045 0.89757335 0
4.8814278 -6.2809186 0.98787224 0
8.9595709 -6.3048558 0.91817558 0
9.0147734 -6.3419051 0.86082649 0
-9.0480394 -6.0936432 0.88889742 0
-8.997674 -6.0396242 0.89196599 0
-7.9830246 -6.0516591 0.98203874 0
-6.9980493 -6.0879378 0.812693 0
1.1799942 -6.1072578 0.87392902 0
1.2334962 -6.1100597 0.89891654 0
4.3153553 -6.1010609 0.91077453 0
4.4224558 -6.0348644 0.98903227 0
4.8471184 -6.1111307 0.96126652 0
5.2310367 -6.1009593 0.98770106 0
8.9653158 -6.1107688 0.91470909 0
9.000946 -6.180809 0.86641759 0
-9.0455627 -5.8926725 0.90776873 0
-7.9656296 -5.8927641 0.97074568 0
1.1791624 -5.8975277 0.8536154 0
1.2262843 -5.9086461 0.87688029 0
1.5626965 -5.8215799 0.9304685 0
1.9146204 -5.8281708 0.91400152 0
2.3236256 -5.8408709 0.84234774 0
2.6472044 -5.832572 0.89663792 0
3.142272 -5.8433242 0.89143234 0
3.9469705 -5.8363256 0.98382747 0
4.3090782 -5.8817701 0.90496808 0
4.4313612 -5.8690543 0.95799381 0
4.8473625 -5.8536882 0.95230526 0
5.1917005 -5.9064727 0.95493811 0
8.9725533 -5.8868918 0.88959765 0
9.0208511 -5.9406338 0.9405669 0
-9.0460777 -5.6816964 0.89455533 0
-8.9915562 -5.6794276 0.98571849 0
-7.9341507 -5.6917877 0.94702351 0
-6.0379272 -5.7135773 0.84824252 0
-5.9290166 -5.6899748 0.9349156 0
-5.7129021 -5.6994724 0.89472526 0
-5.493351 -5.7044969 0.91259915 0
-5.3355265 -5.6864324 0.92399025 0
-5.1054506 -5.7043028 0.89010882 0
-4.9211812 -5.7023115 0.89801091 0
-4.7242627 -5.7065725 0.90144521 0
-4.5284481 -5.691515 0.90487742 0
-4.3443975 -5.7059531 0.92076236 0
-4.1106982 -5.7106915 0.8740918 0
-3.8973763 -5.7131004 0.88041371 0
-3.6795747 -5.7131248 0.86884457 0
-3.4832108 -5.7125392 0.89608383 0
-3.3308067 -5.7218871 0.88776809 0
-3.0960793 -5.6908674 0.90164852 0
-2.9973814 -5.6337919 0.91121602 0
-1.0768625 -5.6787024 0.92509228 0
-0.90603417 -5.7392163 0.90628409 0
-0.70600694 -5.683166 0.89623666 0
-0.47861052 -5.6387005 0.91704595 0
1.3256094 -5.7340822 0.9104172 0
1.5000265 -5.7175875 0.92678493 0
1.7113746 -5.7205315 0.90784967 0
1.9074239 -5.7225103 0.9209581 0
2.1156554 -5.7228789 0.92276984 0
2.314512 -5.7254157 0.91881329 0
2.5147438 -5.7258887 0.91970295 0
2.7068861 -5.7283516 0.92414325 0
2.9034708 -5.7335668 0.89851415 0
3.107985 -5.7377267 0.92470795 0
3.3348792 -5.7287827 0.90958095 0
3.5236788 -5.7470865 0.90023732 0
3.7268121 -5.7096171 0.86602789 0
3.9108489 -5.7313647 0.88893545 0
4.1218305 -5.74156 0.90019435 0
4.2670512 -5.7002831 0.84852487 0
4.4759002 -5.676631 0.92741621 0
4.9224482 -5.6712828 0.94855404 0
5.1149178 -5.713522 0.9632175 0
5.3722467 -5.6053448 0.99320161 0
8.9764681 -5.7102103 0.88474971 0
9.0136204 -5.7614493 0.90141565 0
-9.0393763 -5.5008559 0.90196985 0
-8.9984016 -5.4658241 0.95443577 0
-7.8968835 -5.5033875 0.92189676 0
-6.0353351 -5.5374298 0.90315676 0
-3.0512047 -5.4893351 0.8969332 0
-2.9930344 -5.4783835 0.92047477 0
-1.2140625 -5.4055066 0.91542011 0
-1.1007912 -5.5184536 0.88980794 0
-0.98101616 -5.4130468 0.9784466 0
-0.65536851 -5.5306716 0.90769988 0
-0.53453159 -5.5004687 0.90831548 0
3.7424834 -5.511919 0.82159436 0
3.8360224 -5.450501 0.82910895 0
4.2919297 -5.4395266 0.82206219 0
4.520328 -5.4973893 0.89945251 0
4.6259623 -5.4533334 0.91305232 0
4.8087087 -5.4801865 0.86709356 0
5.1031199 -5.5087495 0.9429177 0
5.4180651 -5.4990511 0.97815567 0
6.5258942 -5.4001703 0.90165806 0
8.9743643 -5.5293803 0.90150559 0
9.0284071 -5.5274897 0.92619151 0
-9.0402365 -5.2849717 0.91600132 0
-8.9973183 -5.2980509 0.94009811 0
-7.8683453 -5.3742847 0.91191685 0
-6.0405688 -5.295619 0.89784366 0
-3.053519 -5.2866488 0.92141628 0
-2.9716399 -5.2920785 0.95511037 0
-1.1030489 -5.3349395 0.83537561 0
-0.66005182 -5.3644891 0.85223895 0
-0.57720155 -5.3614769 0.87719965 0
3.8895235 -5.2690363 0.80391562 0
4.5373392 -5.3331528 0.83581549 0
4.6692114 -5.3048515 0.89048702 0
4.9021926 -5.2630892 0.83287013 0
5.1644993 -5.3169074 0.90932387 0
5.2785544 -5.2647662 0.94668156 0
5.5262132 -5.3122568 0.95743048 0
5.7055116 -5.2673607 0.98857707 0
6.3465176 -5.3007808 0.87290478 0
6.5276465 -5.3460264 0.88095206 0
6.6955137 -5.3080325 0.88474756 0
6.8856907 -5.2327309 0.83227885 0
8.9668264 -5.3295169 0.87729257 0
9.0150471 -5.3601203 0.86916351 0
-9.0450211 -5.0781822 0.91692662 0
-6.0428762 -5.0756826 0.88258302 0
-3.0598204 -5.077539 0.92110962 0
-2.9566126 -5.0775146 0.93958217 0
4.6675615 -5.1349092 0.85075063 0
4.8460693 -5.0806999 0.8525824 0
5.1866775 -5.1399021 0.89347637 0
5.3116703 -5.0853558 0.88415402 0
5.4599099 -5.0452538 0.92960763 0
5.7313633 -5.1280751 0.95723557 0
5.9429045 -5.05756 0.97991484 0
6.2391081 -5.1155138 0.83462524 0
6.5828605 -5.0796223 0.81326151 0
6.6795692 -5.129437 0.89232618 0
6.8363237 -5.1889672 0.83182395 0
8.9761801 -5.1022587 0.84577525 0
9.0241604 -5.1379313 0.94364244 0
-9.0369005 -4.8829675 0.89740807 0
-6.0317039 -4.9016495 0.9076252 0
-3.0547359 -4.898356 0.92523044 0
-2.9600999 -4.8734074 0.90173101 0
4.7772694 -4.8841043 0.81520414 0
4.923522 -4.8852124 0.84653127 0
5.3447866 -4.9145155 0.84630543 0
5.4916177 -4.9181099 0.9060635 0
5.6940641 -4.9373045 0.92435038 0
5.8935251 -4.960886 0.94686848 0
6.3052368 -4.9042878 0.87025172 0
6.5332375 -4.8119388 0.87692457 0
6.7121067 -4.9196134 0.83352655 0
8.9760742 -4.8900061 0.89398569 0
9.026454 -4.9226265 0.9330042 0
-9.0377674 -4.6866326 0.89330935 0
-5.9000978 -4.6710949 0.91323066 0
-5.7115889 -4.6716876 0.91824126 0
-5.5095859 -4.6724558 0.91607016 0
-5.3183575 -4.6755862 0.91526306 0
-5.0667448 -4.677629 0.90931523 0
-4.8917875 -4.6806779 0.91023093 0
-4.7128549 -4.68014 0.88098115 0
-4.525795 -4.6824164 0.87466604 0
-4.3236423 -4.684267 0.88087344 0
-4.1008048 -4.6836486 0.91108763 0
-3.9060533 -4.6842966 0.90887767 0
-3.7205179 -4.6821322 0.93518138 0
-3.4898481 -4.6886921 0.90478325 0
-3.2904642 -4.6857533 0.90124184 0
-3.1137033 -4.7229638 0.89601475 0
4.8462725 -4.792592 0.80852222 0
5.0778284 -4.6910219 0.829611 0
5.5343413 -4.7251892 0.86385417 0
5.6972008 -4.7397518 0.90007496 0
8.9750643 -4.6971941 0.88346207 0
9.0195541 -4.7223625 0.92903173 0
-9.0339603 -4.4941373 0.89269012 0
5.2543459 -4.4901085 0.81396735 0
6.6931624 -4.5809116 0.97929394 0
6.8645992 -4.5149069 0.98444241 0
7.0259008 -4.4732075 0.99539328 0
8.9799137 -4.5154529 0.89026439 0
9.0290489 -4.5088263 0.91059941 0
-9.0361395 -4.2935114 0.87570822 0
5.3526983 -4.3559384 0.80016541 0
5.4005079 -4.382237 0.81157494 0
6.5389156 -4.2467394 0.90706253 0
8.9772415 -4.3102837 0.89782667 0
9.0331421 -4.3186431 0.90491182 0
-9.0315199 -4.0951061 0.87577468 0
6.7011199 -4.1826153 0.91206539 0
6.9047508 -4.1192079 0.92184913 0
8.9799824 -4.1083579 0.89533693 0
9.0285997 -4.1237898 0.90000451 0
-9.0319929 -3.8885336 0.87735921 0
-8.9792576 -3.8524578 0.97500515 0
8.9770851 -3.9107666 0.90029609 0
9.0228157 -3.8999398 0.88712043 0
-9.0327139 -3.700479 0.85554487 0
-8.9815083 -3.6172121 0.94269133 0
6.3508186 -3.7850115 0.80985165 0
6.4585075 -3.7446933 0.81454885 0
6.6756926 -3.6706142 0.82401538 0
6.876132 -3.6196959 0.83653188 0
8.9770422 -3.6937878 0.88550282 0
9.0323677 -3.6995466 0.87559772 0
-9.0253782 -3.4877784 0.87606275 0
7.0451617 -3.5897698 0.84976602 0
8.9781923 -3.4956143 0.87998813 0
9.0283241 -3.5180738 0.92138159 0
-9.0267477 -3.3069341 0.87292498 0
-8.9792786 -3.3817925 0.91067332 0
8.9800091 -3.3235414 0.89122647 0
9.0281057 -3.3045521 0.93664008 0
-9.0295677 -3.1079881 0.9077065 0
-8.9787083 -3.1457944 0.87870425 0
3.7354412 -3.0462883 0.8207857 0
3.9001055 -3.0883813 0.87498534 0
4.0880675 -3.086699 0.87201035 0
4.205224 -3.0427215 0.83856976 0
8.9788342 -3.1096194 0.8784222 0
9.0310402 -3.1127264 0.90411919 0
-9.0256672 -2.9070897 0.9133566 0
-8.9842014 -2.9086292 0.84656727 0
3.5510108 -2.8626852 0.86112767 0
3.7059 -2.9321215 0.92928267 0
4.1454396 -2.9156556 0.89827543 0
4.2583928 -2.8804054 0.89034081 0
8.9824114 -2.8928411 0.8888166 0
9.0305214 -2.9588506 0.89968246 0
-9.0197554 -2.7058048 0.9296788 0
-8.9776287 -2.6719272 0.81505114 0
3.1862321 -2.6152749 0.81126785 0
3.302439 -2.6460111 0.88174623 0
3.4659839 -2.7472243 0.89068115 0
4.3162107 -2.7025478 0.91733646 0
4.4644146 -2.6040349 0.97586888 0
8.9802961 -2.7103891 0.91834503 0
9.0315018 -2.7126081 0.90019947 0
-9.0218878 -2.4991987 0.90280092 0
-8.9934177 -2.454175 0.91087711 0
3.179379 -2.4889431 0.92433208 0
3.2284756 -2.4826918 0.91949952 0
4.3747482 -2.5668349 0.94077033 0
4.4915624 -2.4883275 0.9386369 0
4.6461267 -2.4113047 0.91261786 0
8.9822092 -2.5012455 0.93004537 0
9.0324936 -2.48329 0.8679657 0
-9.018013 -2.3227398 0.90418386 0
-8.9946079 -2.2164323 0.88497835 0
-2.6253164 -2.295928 0.87670708 0
-2.4803965 -2.329215 0.87515789 0
-2.2914987 -2.2858925 0.86626542 0
-2.1614094 -2.2121565 0.87821907 0
3.3097978 -2.292634 0.93085772 0
4.5561314 -2.3767624 0.90983087 0
4.6722646 -2.265857 0.91560751 0
8.9799604 -2.284265 0.92144251 0
9.0189619 -2.2966127 0.84790593 0
-9.0166655 -2.1068711 0.89831018 0
-2.2267926 -2.1165421 0.85156268 0
-2.1518083 -2.1034591 0.89388025 0
3.4745111 -2.0980856 0.91383213 0
4.7629099 -2.1150875 0.91346997 0
4.8471227 -2.0953918 0.91789258 0
8.9826717 -2.1002538 0.91134131 0
9.0379238 -2.0918381 0.87240332 0
-9.0154791 -1.8817667 0.88174373 0
-6.0181222 -1.8482357 0.88987499 0
-5.9275007 -1.9099942 0.8630864 0
-5.7154865 -1.9114164 0.94941521 0
-5.5053496 -1.9061426 0.92677146 0
-5.2985702 -1.9014772 0.92518115 0
-5.1078062 -1.8638262 0.92108387 0
-4.9707227 -1.8313367 0.83223891 0
-2.2751613 -1.9799039 0.83079261 0
-2.1742952 -1.9608752 0.86885166 0
3.5744839 -1.9595135 0.92042094 0
3.6394451 -1.8832014 0.91868705 0
4.9252386 -1.9153614 0.92468137 0
5.0399985 -1.855703 0.92378587 0
8.9835711 -1.9157572 0.9320358 0
9.03403 -1.8980134 0.94595712 0
-9.0158024 -1.6707406 0.90517986 0
-8.9923229 -1.7395175 0.8336128 0
-6.0193591 -1.7019801 0.93295306 0
-5.0467839 -1.6807379 0.91215396 0
3.750294 -1.7405232 0.91832364 0
3.8214703 -1.656162 0.91723061 0
5.1110215 -1.7025155 0.91933388 0
5.2401948 -1.6272469 0.89080143 0
8.9825926 -1.7140015 0.89284337 0
9.0418062 -1.6989205 0.89966565 0
-9.015173 -1.485339 0.89796692 0
-6.0414658 -1.4660145 0.8978138 0
-5.0552311 -1.5157292 0.91616404 0
3.9244359 -1.5254955 0.91287655 0
4.0121832 -1.4115117 0.92979449 0
5.1792383 -1.5958871 0.94757777 0
5.288414 -1.5015448 0.90479082 0
5.4412704 -1.4566078 0.8564921 0
8.9846802 -1.476463 0.89538634 0
9.0334187 -1.5053169 0.89750993 0
-9.0124989 -1.287033 0.89800191 0
-6.0458183 -1.3058847 0.87814111 0
-5.0678339 -1.3110418 0.90273553 0
4.1053057 -1.2977562 0.93034089 0
5.3503737 -1.3784646 0.94811743 0
5.4956942 -1.2911309 0.89108598 0
5.6067181 -1.251399 0.84483612 0
8.9852448 -1.279359 0.89969265 0
9.0401011 -1.3112772 0.89815956 0
-9.012908 -1.1026329 0.89126557 0
-6.0602627 -1.0898576 0.89012742 0
-5.0783916 -1.0992638 0.90052783 0
4.1912661 -1.1831644 0.88250649 0
4.2764549 -1.0855871 0.88750422 0
5.5534768 -1.1300702 0.92931718 0
5.6876926 -1.095341 0.87227064 0
5.8041353 -1.0221057 0.81877518 0
8.9827623 -1.0968449 0.91157126 0
9.0329828 -1.1254368 0.90303677 0
-9.0127048 -0.90363944 0.88329083 0
-8.9997063 -0.95922995 0.9768194 0
-6.0742707 -0.89009321 0.88955557 0
-5.0901885 -0.89221102 0.89362699 0
4.3659577 -0.97063994 0.88368928 0
4.4447479 -0.87873405 0.88549662 0
5.7571988 -0.90866554 0.90097928 0
5.8006306 -0.82566786 0.9550398 0
8.9816303 -0.90166038 0.89512116 0
9.0411148 -0.89992476 0.89672261 0
-9.0107679 -0.70747012 0.89435416 0
-8.9970713 -0.60098362 0.83631015 0
-6.0845623 -0.69049388 0.89624059 0
-5.1006103 -0.68107605 0.91635394 0
4.5475497 -0.74832284 0.87506431 0
4.6337652 -0.64546579 0.87314111 0
5.6828308 -0.66382289 0.87743092 0
5.8241062 -0.79894578 0.91986006 0
8.9828148 -0.70328081 0.91020674 0
9.0380163 -0.68925232 0.87221092 0
-9.0113392 -0.49422064 0.88481468 0
-8.9995375 -0.50554401 0.84813708 0
-6.0958033 -0.49226877 0.90443653 0
-5.1034317 -0.49216551 0.91737157 0
4.7251554 -0.52219981 0.88104963 0
4.816947 -0.40860185 0.87737226 0
5.3797331 -0.42081463 0.98026437 0
5.4970427 -0.51921713 0.86588281 0
5.6055784 -0.59742069 0.82694161 0
8.9837351 -0.4953129 0.90810376 0
9.0331306 -0.54171741 0.87443805 0
-9.0109005 -0.29700771 0.87352204 0
-8.9968357 -0.30481631 0.9127661 0
-6.1068811 -0.30393907 0.90674269 0
-5.1173 -0.31223178 0.91412467 0
4.8925052 -0.31566975 0.96461535 0
5.1395226 -0.23919047 0.91218925 0
5.2832899 -0.34182018 0.90687734 0
8.987216 -0.285438 0.92739195 0
9.0256662 -0.320039 0.85870111 0
-9.0091381 -0.088511296 0.88043332 0
-8.9975367 -0.081608616 0.90446144 0
-6.120513 -0.10403184 0.88744444 0
-5.1273146 -0.10826118 0.93358696 0
4.9806991 -0.19571786 0.88747072 0
5.0642757 -0.15881154 0.87489235 0
8.9898949 -0.096946344 0.90958214 0
9.0431824 -0.050548911 0.91143107 0
-9.008708 0.12669085 0.87574285 0
-8.9973831 0.14226827 0.86096394 0
-6.1314902 0.087853454 0.85751778 0
-5.1460752 0.11163428 0.92059642 0
8.9879684 0.10433862 0.91917878 0
9.0322294 0.10794131 0.89309978 0
-9.0097618 0.2869986 0.86484623 0
-8.9969082 0.32363129 0.88075668 0
-6.141439 0.26843452 0.86457419 0
-5.1613302 0.31992945 0.93953371 0
8.9926529 0.28601974 0.91459334 0
9.0323801 0.29526508 0.87123263 0
-9.0072193 0.49563017 0.89017832 0
-8.9956121 0.48569492 0.86805445 0
-6.1599898 0.52004725 0.86244422 0
-5.2092018 0.54487252 0.97023606 0
-5.1631041 0.53302133 0.9019165 0
8.993679 0.48997191 0.90974975 0
9.0199213 0.49867898 0.86427492 0
-9.0102196 0.73249716 0.87669253 0
-8.9959612 0.73416489 0.88063705 0
-6.1713972 0.72222537 0.92421615 0
-5.214498 0.66727239 0.93408632 0
-5.1689987 0.70906353 0.90782839 0
8.9933891 0.69647467 0.88725686 0
9.0209885 0.71079546 0.86654919 0
-9.0073662 0.86974806 0.8904103 0
-8.9969769 0.9375602 0.87136471 0
-6.179606 0.9001568 0.86030847 0
-5.2271652 0.87252116 0.94052929 0
-5.1880546 0.90922868 0.92710364 0
8.993268 0.89972383 0.90034956 0
9.0152502 0.89170462 0.864658 0
-9.008357 1.1135156 0.89462805 0
-8.994422 1.1344515 0.89076638 0
-6.0939412 1.0974214 0.86986893 0
-5.8754988 1.1143377 0.86867321 0
-5.7190523 1.1209484 0.8801865 0
-5.5123782 1.131413 0.87016869 0
-5.2975626 1.1249301 0.88166267 0
-5.1900935 1.0787992 0.88053799 0
0.91886288 1.1937509 0.87521034 0
1.0008998 1.1852312 0.82645237 0
8.994277 1.0912716 0.93889922 0
9.0155735 1.0928175 0.84923851 0
-9.0060358 1.3615075 0.93783909 0
-8.9951773 1.3474106 0.88070524 0
0.7413348 1.3360969 0.86782348 0
0.87442708 1.2237047 0.86443871 0
1.057855 1.2202591 0.86037272 0
8.9960203 1.2896684 0.94098711 0
9.0110693 1.2921551 0.83367443 0
-9.0036526 1.5333557 0.91856509 0
-8.992938 1.5149559 0.91395479 0
0.71866471 1.4351745 0.87146825 0
1.1403657 1.4983071 0.86428303 0
1.2349361 1.4810594 0.86132056 0
8.9962645 1.4844624 0.93540156 0
9.0128813 1.4898907 0.90412039 0
-9.0083895 1.6937782 0.92584878 0
-8.9928608 1.6898468 0.91784519 0
-2.6634145 1.7371616 0.91496682 0
8.9938545 1.69282 0.96135461 0
9.0147657 1.7005805 0.88322425 0
-9.0064287 1.8987138 0.96390831 0
-8.993844 1.9099923 0.90376234 0
-2.8835056 1.9656286 0.84203565 0
-2.7800593 1.9865963 0.84795427 0
-2.5129576 1.8978264 0.9450531 0
8.9972706 1.8866516 0.92856967 0
9.0112553 1.9144181 0.88405484 0
-9.0028591 2.1201196 0.87707168 0
-8.9947624 2.1039217 0.92146039 0
8.9966326 2.1349173 0.91397792 0
9.0110064 2.1154993 0.88330323 0
-9.0043907 2.3233526 0.94499511 0
-8.9902821 2.303375 0.89969814 0
8.9966812 2.3321879 0.94514966 0
9.0129662 2.3112144 0.86435324 0
-9.0052853 2.496757 0.94169891 0
-8.9897919 2.4956682 0.90991294 0
8.9979181 2.4103317 0.95003927 0
9.009244 2.5054047 0.87971413 0
-9.0066967 2.7011657 0.95323372 0
-8.9896412 2.7016101 0.87861264 0
8.9956102 2.6830273 0.87589782 0
9.0116625 2.6998556 0.88595182 0
-8.9885015 2.8983622 0.8714329 0
8.9963455 2.8721683 0.89198309 0
9.0122404 2.9026432 0.87563008 0
-8.9884653 3.1022639 0.90069354 0
8.9972944 3.1084282 0.85978407 0
9.0136747 3.1009572 0.88122278 0
-9.0018492 3.3610129 0.99693429 0
-8.9859219 3.3123205 0.88044858 0
8.9961882 3.3431211 0.80101538 0
9.0139532 3.2920873 0.88219571 0
-9.0003223 3.4898815 0.85285026 0
-8.9833641 3.5053284 0.88303608 0
8.9933949 3.406611 0.95494777 0
9.013567 3.4992976 0.89322674 0
-8.9866896 3.7188118 0.89005202 0
8.9984922 3.7995193 0.93733609 0
9.0142307 3.7000532 0.89896369 0
-9.0021696 3.8968418 0.86500651 0
-8.9826326 3.9342432 0.88908499 0
9.0165663 3.9042695 0.87281752 0
-9.027462 4.0722094 0.92903709 0
-8.9849234 4.1154275 0.89993125 0
9.0168962 4.0952792 0.88808328 0
-9.0195885 4.3010445 0.92552942 0
-8.9812384 4.2954316 0.88750935 0
1.8899164 4.3046441 0.88114661 0
2.0846102 4.2847948 0.88920552 0
2.2889061 4.2836404 0.89629793 0
2.4844236 4.282661 0.90189385 0
2.7119415 4.2810807 0.9009617 0
2.9079025 4.2783585 0.90184385 0
3.1025786 4.2778678 0.90496677 0
3.3147166 4.277113 0.91466773 0
3.5049765 4.2737684 0.90593272 0
3.7058208 4.2742128 0.90258735 0
3.9017386 4.2742677 0.90232974 0
4.1001616 4.2733183 0.90343529 0
4.2992134 4.2685618 0.91538483 0
4.5063601 4.2678132 0.92528152 0
4.6820168 4.2656617 0.92785841 0
4.8221822 4.3037181 0.89315242 0
9.017684 4.2807994 0.87983167 0
-9.029768 4.5037308 0.95448017 0
-8.9811049 4.4852653 0.88633257 0
-4.1118412 4.5365028 0.8998943 0
-3.8836963 4.5116024 0.90735483 0
-3.7001526 4.507637 0.90794432 0
-3.5095496 4.5154743 0.87849557 0
-3.3067424 4.5126123 0.88017344 0
-3.0932918 4.5112572 0.87003928 0
-2.8990259 4.5091362 0.8902964 0
-2.6946397 4.5079589 0.88656914 0
-2.5061703 4.5070634 0.9011367 0
-2.294975 4.5058846 0.89381737 0
-2.0820916 4.5050302 0.87665004 0
-1.9076052 4.4985414 0.85098749 0
-1.6985412 4.4974976 0.89120662 0
-1.485927 4.4999642 0.87963194 0
-1.2972609 4.503963 0.92847061 0
-1.1760321 4.5565586 0.87117779 0
1.8226488 4.4963522 0.90612656 0
4.8119998 4.4866095 0.8866055 0
8.998991 4.4639964 0.85769171 0
9.0198145 4.4790878 0.87658441 0
-9.0197325 4.7311034 0.90700579 0
-8.9791975 4.6906896 0.89218044 0
-4.1737914 4.6973023 0.86432123 0
-1.1822032 4.6807895 0.93463105 0
1.8203056 4.7194929 0.88151109 0
4.8173013 4.6746912 0.86821711 0
8.9882345 4.6426873 0.980147 0
9.0160646 4.6727729 0.91236836 0
-9.0368919 4.9158974 0.93127799 0
-8.9782887 4.8855801 0.90329331 0
-4.1735706 4.8973918 0.8660416 0
-1.1792873 4.8918371 0.89993024 0
1.824308 4.9177303 0.87612706 0
4.8213582 4.9128795 0.87784511 0
8.9999275 4.9384537 0.99319172 0
9.0234966 4.9052773 0.90671664 0
-9.0281916 5.0844841 0.91376173 0
-8.9789791 5.0945706 0.87967515 0
-4.1701899 5.097651 0.89618176 0
-1.1777644 5.0978503 0.88206774 0
1.8230447 5.1160145 0.88514686 0
4.8204222 5.0937762 0.87196606 0
9.0205755 5.089262 0.91605228 0
-9.0227852 5.3210082 0.90909946 0
-8.9769545 5.2983809 0.89877743 0
-4.1719294 5.3199196 0.89860827 0
-1.1800103 5.2941303 0.87486291 0
1.887171 5.2586021 0.87331235 0
2.099998 5.2837653 0.90624917 0
2.281786 5.2840004 0.91141802 0
2.4880056 5.283731 0.92114162 0
2.7157261 5.2815037 0.87950397 0
2.9016461 5.2810969 0.87160122 0
3.1010091 5.2780509 0.89043826 0
3.300941 5.2769766 0.87264872 0
3.507899 5.275126 0.89267629 0
3.7059159 5.2742128 0.90662086 0
3.8855972 5.2720461 0.92443734 0
4.0905261 5.2724133 0.93748379 0
4.2826471 5.2708774 0.91179365 0
4.4753323 5.2714272 0.89467651 0
4.6882977 5.26582 0.90029401 0
4.817893 5.2551355 0.89487338 0
9.0226688 5.3009057 0.90877366 0
-9.0249424 5.4839168 0.84369278 0
-8.9753742 5.4954624 0.89427429 0
-7.5028353 5.4845319 0.84276354 0
-4.1109476 5.4993682 0.89683825 0
-3.8925388 5.5170283 0.89747828 0
-3.7153535 5.5142798 0.89935142 0
-3.5170715 5.5131764 0.87132269 0
-3.3009248 5.5149875 0.85187238 0
-3.1147442 5.5103855 0.92880648 0
-2.9016225 5.5091448 0.91879505 0
-2.7162204 5.5085492 0.89589834 0
-2.5124402 5.5079217 0.89965069 0
-2.2992699 5.507338 0.9007259 0
-2.0934815 5.5053873 0.91115952 0
-1.9226964 5.5047159 0.92998803 0
-1.7247652 5.5026307 0.90153354 0
-1.5308225 5.5022197 0.92507672 0
-1.3429848 5.5001283 0.90796256 0
-1.1784829 5.4489622 0.88970417 0
9.0217867 5.5037627 0.90066391 0
-9.0230141 5.6789336 0.87669623 0
-8.9726992 5.702683 0.87174976 0
9.0226803 5.7064543 0.91067004 0
-9.0170383 5.9083595 0.82209015 0
-8.9700956 5.9040518 0.86975569 0
8.9770775 5.9501605 0.98706281 0
9.0257587 5.9136715 0.89939582 0
-9.0220127 6.1083965 0.85471463 0
-8.968873 6.1111226 0.86600816 0
9.0252047 6.1002436 0.91741854 0
-9.0199089 6.3506441 0.80059791 0
-8.9676638 6.2922063 0.8651728 0
9.0259724 6.290122 0.88719201 0
-9.0182514 6.4790812 0.82269382 0
-8.9671707 6.4925632 0.88508534 0
9.0233498 6.4971719 0.88527489 0
-8.9660358 6.6885133 0.9114514 0
7.0209742 6.7950153 0.84051377 0
8.9756308 6.6129661 0.96848607 0
9.0278635 6.7089548 0.89462119 0
-8.965167 6.8997397 0.87647176 0
6.9106073 6.8714514 0.84571278 0
7.0953784 6.8495693 0.90029418 0
9.028018 6.9096479 0.89682108 0
-8.9657745 7.0937471 0.90959674 0
9.0320835 7.0955729 0.89915824 0
-8.9609823 7.2930059 0.87202096 0
8.9832077 7.3656116 0.94840991 0
9.0291529 7.2832398 0.89039552 0
-8.9589415 7.5019708 0.88404834 0
9.0330458 7.4771361 0.89223927 0
-8.961977 7.7020969 0.90211475 0
9.0359945 7.6896 0.89590329 0
-8.9590015 7.905139 0.89484978 0
9.0347977 7.8885856 0.89586973 0
-8.9596491 8.0968876 0.88194847 0
8.9779415 8.1472149 0.9271071 0
9.0362825 8.0953417 0.89615279 0
-8.9566116 8.2936287 0.888753 0
9.0373173 8.3006945 0.91974485 0
-9.0050888 8.4015141 0.85657525 0
-8.9561453 8.4950647 0.872899 0
9.0381832 8.4999313 0.90566355 0
-8.9530077 8.7036734 0.89025402 0
9.0374346 8.7035389 0.89646399 0
-8.9567833 8.9033041 0.88745791 0
-6.9557347 8.9962454 0.85914463 0
-6.4632874 8.9996157 0.96255606 0
-6.2205596 8.9933157 0.94324964 0
-5.9820004 8.99687 0.92397976 0
-5.5053949 8.9857063 0.88688272 0
-5.2721968 8.9948864 0.86829197 0
-4.0314693 8.9993505 0.91791576 0
-3.6508641 8.9960556 0.91360873 0
-3.5091674 8.9959621 0.93290997 0
-3.0305693 8.9983559 0.89269865 0
-2.9480958 8.9999237 0.85484022 0
-2.7095532 8.9925709 0.8878935 0
-2.4955542 8.9969101 0.8534928 0
-2.2552299 8.9988728 0.8783794 0
-2.1368454 8.995039 0.83974081 0
-1.9367386 8.9983902 0.89567345 0
-1.7206908 8.9982462 0.89453578 0
-1.4667295 8.9971809 0.90210128 0
-1.2964392 8.9936485 0.92329013 0
-1.0764725 8.9961205 0.87939757 0
-0.89234191 8.9954405 0.84827912 0
-0.7108593 8.9962778 0.8711971 0
-0.50622594 8.9947176 0.8652696 0
-0.30011624 8.9946671 0.85024005 0
-0.11001488 8.993638 0.86443698 0
0.095884852 8.992651 0.89856589 0
0.32207292 8.9925051 0.92581779 0
0.48784956 8.9909172 0.92524719 0
0.69652528 8.9912987 0.93241471 0
0.90053976 8.9898214 0.92859322 0
1.1037337 8.9892807 0.90184563 0
1.3061168 8.9880238 0.90762264 0
1.4690493 8.9908018 0.91692984 0
1.6821538 8.9870138 0.91904992 0
1.8999021 8.9850111 0.90731162 0
2.0966408 8.9875927 0.88636601 0
2.2874465 8.9852648 0.88646126 0
2.4788592 8.9845953 0.87980765 0
2.6955979 8.9829559 0.90671116 0
2.8914318 8.9811668 0.91529888 0
3.1155138 8.9780922 0.91479582 0
3.3023224 8.9783278 0.91780001 0
3.4932842 8.977644 0.89233077 0
3.6819346 8.9769096 0.88838381 0
3.900111 8.9757586 0.90780854 0
4.0932379 8.973876 0.90614927 0
4.3181663 8.9726744 0.90061057 0
4.497972 8.971262 0.88530117 0
4.6926107 8.9710712 0.89960301 0
4.9068837 8.9674425 0.88776207 0
5.0842524 8.9692707 0.88734215 0
5.2844906 8.9662743 0.87505186 0
5.5025306 8.9662552 0.88246655 0
5.7047129 8.9643011 0.89863265 0
5.9106798 8.9615679 0.88259608 0
6.0999689 8.9651775 0.8821134 0
6.3096046 8.9634523 0.89449728 0
6.5074534 8.960124 0.89072138 0
6.7174172 8.9630203 0.90050918 0
6.9023581 8.9619913 0.91339439 0
7.0910993 8.9608755 0.92556477 0
7.2994313 8.9611692 0.89185262 0
7.4983916 8.960309 0.90889239 0
7.6835294 8.9584856 0.88898933 0
7.9114113 8.9607697 0.89997 0
8.0895309 8.9575424 0.91529107 0
8.2821541 8.9571772 0.89831364 0
8.4812031 8.9567633 0.90940464 0
8.6899605 8.9532375 0.90152049 0
8.8964529 8.9528141 0.90571767 0
9.0425329 8.8598003 0.90821522 0
-8.87045 9.0449677 0.90523148 0
-8.6980572 9.0464058 0.88993192 0
-8.5019455 9.0430927 0.89361268 0
-8.3048382 9.0423384 0.88155794 0
-8.1002245 9.0422573 0.88766795 0
-7.8991799 9.0392523 0.87936485 0
-7.6958895 9.0353918 0.8996197 0
-7.5075164 9.0358248 0.92232209 0
-7.3027973 9.0312357 0.91496319 0
-7.0975552 9.0332994 0.9138217 0
-6.9011278 9.0351534 0.90993923 0
-6.7057781 9.0308638 0.89576 0
-6.4764347 9.0304003 0.89554316 0
-6.2920222 9.0326624 0.8883546 0
-6.1084242 9.0302067 0.90910929 0
-5.9167933 9.0292377 0.89697105 0
-5.7036796 9.0257635 0.90480673 0
-5.4880991 9.0272465 0.89985669 0
-5.2958903 9.0282717 0.89463049 0
-5.0932436 9.0243139 0.90954065 0
-4.891398 9.0242987 0.90181994 0
-4.7037959 9.0230942 0.91427511 0
-4.5052538 9.0202093 0.91009593 0
-4.2985792 9.0198908 0.90680504 0
-4.094069 9.0191107 0.91685432 0
-3.8919954 9.017971 0.9189328 0
-3.7028069 9.0153494 0.90483308 0
-3.4857159 9.0154037 0.89114702 0
-3.291954 9.0141392 0.89933997 0
-3.1053987 9.0146666 0.87995493 0
-2.8975663 9.0116863 0.8982076 0
-2.7060573 9.0111923 0.88760871 0
-2.4987769 9.0093803 0.88223064 0
-2.297931 9.0089655 0.88885242 0
-2.0984502 9.0086546 0.88357246 0
-1.9083419 9.0074768 0.88796049 0
-1.6872704 9.0061398 0.89008242 0
-1.504337 9.0055952 0.88782924 0
-1.3040608 9.0064888 0.87132591 0
-1.1120415 9.0055904 0.87807465 0
-0.90601152 9.0054226 0.88039798 0
-0.71320808 9.0062227 0.84676594 0
-0.47301459 9.0052843 0.86681467 0
-0.28362328 9.0046225 0.85358125 0
-0.17814064 9.0039654 0.87546569 0
0.25433016 9.0023823 0.83853698 0
0.59605312 9.0016832 0.96836454 0
0.69024396 9.0028305 0.89986867 0
0.83677101 9.0018625 0.81689572 0
1.0008488 9.0100279 0.99411654 0
1.4447629 9.0064716 0.93620133 0
1.6707869 9.0071602 0.98168635 0
1.9539692 9.012105 0.9538511 0
2.1767416 9.0013142 0.99432707 0
2.2129784 9.0100365 0.98973191 0
2.442358 9.0160961 0.98686755 0
5.4967022 9.016573 0.88152295 0
5.7382069 9.0177717 0.89640993 0
5.9580283 9.0086441 0.9114961 0
6.1403403 9.0181694 0.92190856 0
6.265162 9.0164337 0.93561244 0
6.4667573 9.0356474 0.93009043 0
6.7170615 9.0469751 0.92875308 0
7.0695419 9.0376654 0.95100284 0
7.2688465 9.0609169 0.92570198 0
7.5146027 9.0683022 0.94066656 0
7.711091 9.032465 0.9187662 0
7.9726295 9.0653305 0.84420705 0
8.0061016 9.0618725 0.97231185 0
8.2393398 9.0654268 0.92352813 0
8.4790611 9.073267 0.87275004 0
8.7340946 9.073698 0.88786244 0
8.9830647 9.0455341 0.90377641 0
-8.928813 -9.029706 1.0712065 0
-8.4383736 -9.0279341 1.1534513 0
-8.3230047 -9.02773 1.0889847 0
-8.0816536 -9.0284519 1.136125 0
-7.8817449 -9.0492668 1.1451658 0
-7.6629486 -9.040452 1.122364 0
-7.5399289 -9.0440836 1.1589783 0
-7.0413451 -9.014039 1.0834119 0
-6.825963 -9.0316372 1.160017 0
-6.758019 -9.0504827 1.0915431 0
-6.5190001 -9.0336056 1.1029671 0
-6.3576021 -9.0391674 1.136981 0
-6.1848526 -9.0382481 1.1713566 0
-5.884954 -9.0301542 1.1114929 0
-5.6652622 -9.0381231 1.1208467 0
-5.4788089 -9.0415754 1.1553053 0
-5.3211222 -9.0407572 1.0868791 0
-5.092742 -9.0430632 1.1211823 0
-4.8769546 -9.0424662 1.1266441 0
-4.703311 -9.0335178 1.1378731 0
-4.4961605 -9.043294 1.1264979 0
-4.2857161 -9.056262 1.0845309 0
-4.0838809 -9.0541697 1.1146487 0
-3.8884351 -9.0555611 1.1279528 0
-3.7087247 -9.03543 1.1094801 0
-3.5140469 -9.0538225 1.1035928 0
-3.3059351 -9.0572462 1.0992255 0
-3.1006894 -9.0550079 1.1062398 0
-2.8891203 -9.0569305 1.124911 0
-2.699589 -9.0499144 1.0973637 0
-2.4921844 -9.0575418 1.1000932 0
-2.2887313 -9.0505867 1.1146387 0
-2.103303 -9.0475483 1.0843469 0
-1.8934118 -9.0570192 1.1250535 0
-1.6896442 -9.0546474 1.1059356 0
-1.4958158 -9.0670204 1.0919279 0
-1.2927171 -9.0554409 1.1015997 0
-1.0884522 -9.0709753 1.0948142 0
-0.88517904 -9.0596933 1.0833334 0
-0.69522941 -9.0535507 1.0975525 0
-0.49918577 -9.0556946 1.105405 0
-0.29092103 -9.0524683 1.0855204 0
-0.09750355 -9.0452862 1.1141397 0
0.095551014 -9.0517187 1.1075109 0
0.29478016 -9.0441275 1.0838189 0
0.50375092 -9.0551109 1.0969617 0
0.70329005 -9.0452633 1.1041809 0
0.88627112 -9.0559273 1.1013453 0
1.0981259 -9.0651808 1.1142911 0
1.2990608 -9.0588284 1.1082827 0
1.4976339 -9.0680628 1.1179129 0
1.6960546 -9.0607157 1.0971693 0
1.8863279 -9.0698977 1.0973569 0
2.0873566 -9.0616989 1.0886382 0
2.2818499 -9.0695572 1.0847411 0
2.4869504 -9.0689182 1.0859973 0
2.6876738 -9.063817 1.0960419 0
2.8720498 -9.0628242 1.0778183 0
3.0766528 -9.0693789 1.0897255 0
3.2869356 -9.0578756 1.0845026 0
3.482131 -9.0634012 1.0893916 0
3.682889 -9.0570698 1.0835512 0
3.8832788 -9.0529985 1.0889409 0
4.0874958 -9.0615511 1.0843469 0
4.2858257 -9.0622749 1.0856533 0
4.5011997 -9.0610714 1.1045908 0
4.7084246 -9.0577412 1.0965997 0
4.8684149 -9.061945 1.1019143 0
5.0725789 -9.0678005 1.1125466 0
5.2903519 -9.0627317 1.1092825 0
5.4982176 -9.0604525 1.111165 0
5.6988616 -9.0594749 1.1095943 0
5.8945022 -9.0596323 1.1013544 0
6.0870528 -9.0639009 1.1007107 0
6.2859616 -9.0650005 1.1047748 0
6.4882488 -9.0673828 1.1036326 0
6.7072854 -9.0593233 1.1038653 0
6.8815174 -9.0715361 1.0547973 0
7.0600452 -9.0589228 1.0823156 0
7.2857261 -9.0513582 1.0813903 0
7.4923401 -9.0585356 1.0976928 0
