# .PCD v0.7 - Point Cloud Data file format
VERSION 0.7
FIELDS x y z intensity roll pitch yaw time
SIZE 4 4 4 4 4 4 4 8
TYPE F F F F F F F F
COUNT 1 1 1 1 1 1 1 1
WIDTH 98
HEIGHT 1
VIEWPOINT 0 0 0 1 0 0 0
POINTS 98
DATA ascii
-8.9988625e-06 -7.3376464e-06 -1.1072796e-05 0 -6.7071451e-05 0.00051479106 -1.4089716e-11 10.902
1.0026159 0.00081675936 0.0013009919 1 -0.00070035207 -0.007234632 0.00061450899 58.102
2.0247946 -0.0062222281 0.002476288 2 -0.00056266529 -0.003328189 -0.0019716718 64.501
3.0542974 -0.010476877 0.012046378 3 -0.0017717015 -0.010105067 -0.0017986258 70.902
3.4956937 0.048275147 0.020252349 4 -0.0035548864 -0.010883251 0.21144299 74.904
3.4772153 0.108234 0.024006192 5 -0.0052474942 -0.0099497475 0.43781638 75.303
3.4494572 0.16335708 0.017394738 6 -0.0076357187 -0.0086575123 0.64790875 75.702
3.4777141 0.11010917 0.019424042 7 -0.0053472198 -0.0093865441 0.43587798 76.105
3.451329 0.160151 0.021225493 8 -0.0078456271 -0.0083955405 0.63796318 76.902
4.256566 0.76616478 0.026666014 9 -0.005228336 -0.011852586 0.64393926 83.503
5.0763588 1.3773327 0.028922584 10 -0.0090693673 -0.0058231223 0.64442796 89.907
5.9004755 1.995772 0.05336152 11 -0.006478128 -0.013191537 0.64287698 96.308
6.7135758 2.6102808 0.05818481 12 -0.0046412502 -0.00759952 0.64366329 102.705
7.0257478 2.9185956 0.049462631 13 -0.0071471534 -0.0047819475 0.87154692 106.504
6.9732499 2.9515338 0.051800054 14 -0.008839746 -0.0034847327 1.1003666 106.905
7.3043313 3.9253714 0.040467806 15 -0.004969704 -0.0075087217 1.2108059 113.91
7.6706476 4.8849969 0.072051495 16 -0.010260758 -0.0064571789 1.2112601 120.309
7.8225517 5.522984 0.10320292 17 -0.013570205 -0.0064386437 1.5180194 125.91
7.761579 5.5198359 0.10411031 18 -0.014738359 -0.0045935572 1.7413028 126.309
7.7023087 5.5005698 0.081924461 19 -0.01285629 -0.00054980826 1.9705491 126.708
7.6447101 5.4705791 0.071312323 20 -0.012141492 0.002379914 2.2023931 127.106
7.5958991 5.4270563 0.062763996 21 -0.010029188 0.0050481795 2.4339902 127.506
7.5581198 5.3724756 0.060710356 22 -0.0083259195 0.0071323561 2.6671925 127.908
6.5951958 5.6676307 0.049455743 23 -0.0072845747 0.0089058569 2.8088758 143.109
5.6217055 5.9987631 0.045963708 24 -0.0089483485 0.0083844597 2.80881 149.51
4.6504593 6.3304439 0.047868483 25 -0.004928838 0.0062424676 2.8090055 155.91
3.6832595 6.6676607 0.093820974 26 -0.0084203593 0.0093270354 2.8093457 162.309
2.7158921 7.005507 0.11454684 27 -0.016403163 0.005387323 2.8087659 168.71
1.7551883 7.3432865 0.16131914 28 -0.020863356 0.012871771 2.8085389 175.106
1.6183261 7.3222833 0.1003323 29 -0.013297536 0.01184373 3.0369911 182.51
1.6271124 7.3937798 0.088428423 30 -0.013597165 0.0080681061 2.7588058 183.51
1.6079543 7.3280768 0.073432058 31 -0.011368775 0.010067463 3.0033557 184.109
0.61697543 7.4575768 0.02777179 32 -0.0059816279 0.0083504347 3.0094411 190.909
-0.40574753 7.5925999 0.0088959439 33 -0.005684481 0.0056222612 3.0093057 197.305
-1.4177201 7.7231178 -0.022044349 34 -0.0027284359 0.0077435453 3.0103493 203.706
-2.4345531 7.8545322 -0.077017285 35 0.0073871952 0.010422517 3.0100861 210.106
-3.2726212 7.8942871 -0.094920315 36 0.012432316 0.0076605398 -3.0254502 218.11
-3.259258 7.835145 -0.091967292 37 0.012984215 0.0068519823 -2.8011692 218.506
-3.2350459 7.7731256 -0.049156398 38 0.0092223799 0.0048259827 -2.5401163 220.511
-3.9706059 7.0717807 -0.029965844 39 -0.0086640054 0.0093973055 -2.4106202 227.706
-4.7353806 6.3845148 -0.025857251 40 -0.0007065438 0.0034895632 -2.41066 234.107
-5.4993343 5.6972637 -0.033102836 41 7.5977805e-05 0.0017011117 -2.4109888 240.509
-6.2636909 5.0171256 -0.026673723 42 -0.001444669 0.0018028863 -2.410959 246.91
-6.2393022 4.9570508 -0.030728135 43 -0.00018778592 0.0017183924 -2.1806631 248.312
-6.7362723 4.0724297 -0.036354676 44 -0.00046910491 0.0043633673 -2.1017892 255.508
-7.2417021 3.2013786 -0.031288218 45 0.000986367 -0.0037902521 -2.1015592 261.71
-7.3612752 3.1184258 -0.028973563 46 0.0032769893 -0.0033280584 -2.3424511 264.311
-7.4017 3.1674521 -0.027936444 47 0.0032091965 -0.001499439 -2.570708 264.709
-7.3596625 3.1142044 -0.024893153 48 0.0022965891 -0.0024485169 -2.2998271 266.51
-7.3096337 3.0779369 -0.024950316 49 0.0011705484 -0.0026827315 -2.0778725 266.911
-7.2523198 3.0538132 -0.025884934 50 0.000372354 -0.0030660606 -1.8540311 267.311
-7.1922455 3.0432131 -0.029506056 51 0.00017494049 -0.0030283385 -1.6290641 267.711
-7.227922 2.0394301 -0.02303713 52 0.0014846947 -0.0023816018 -1.6105391 274.911
-7.2693653 1.0141706 -0.02667895 53 0.0014396065 0.00025259584 -1.6103438 281.307
-7.3061571 0.014492113 -0.045765247 54 0.005096768 -0.00086775917 -1.6098605 287.507
-7.3458829 -1.007585 -0.053092249 55 0.0052750907 0.0015803499 -1.6101415 293.91
-7.3848581 -2.008847 -0.037069891 56 0.0021077602 -0.0051762694 -1.6091564 300.107
-7.4268265 -3.0327532 -0.011553302 57 -0.0025639934 -0.0038275046 -1.6086037 306.51
-7.4655743 -4.0547795 0.026601417 58 -0.0050906162 -0.0045736851 -1.6079699 312.905
-7.5067258 -5.0561247 0.085544653 59 -0.01120304 -0.0090651223 -1.6077118 319.112
-7.4585047 -5.2436018 0.17279997 60 -0.021791542 -0.0082985759 -1.4049845 326.308
-7.4029102 -5.228827 0.17497829 61 -0.021628438 -0.0054398919 -1.1793668 326.709
-6.8330774 -6.06774 0.20951833 62 -0.040701326 -0.00645302 -1.0026984 333.906
-6.3398433 -6.8800883 0.54574627 63 -0.075576276 -0.019681316 -1.0027071 339.91
-6.2093563 -6.9518323 0.76735097 64 -0.098782301 -0.00051342993 -0.7270366 343.713
-6.165658 -6.8981133 0.78164637 65 -0.095418528 0.020982206 -0.50058323 344.107
-6.1324935 -6.8252196 0.830836 66 -0.090291813 0.048681639 -0.21769753 345.514
-5.1247592 -6.8008184 0.90328169 67 -0.077169463 0.061059963 -0.027815485 352.709
-4.2122459 -6.8275542 1.3369678 68 -0.083877526 0.085797399 -0.02756311 358.513
-3.2466328 -6.8541832 1.6811234 69 -0.10857379 0.094176121 -0.030310707 364.513
-2.2650764 -6.8887835 1.3901577 70 -0.1005728 0.065066025 -0.026424445 370.509
-1.247766 -6.9092717 1.4111229 71 -0.10712716 0.054117691 -0.026438065 376.911
-0.82974023 -6.9802318 1.3431762 72 -0.11059432 0.027137062 -0.24212627 381.312
-0.83965445 -7.039268 1.3521457 73 -0.11361249 -0.00020321566 -0.46750712 381.713
-0.87906271 -7.0857964 1.3592787 74 -0.11052247 -0.026004501 -0.69785386 382.113
-0.83713764 -7.0276532 1.3489906 75 -0.1122672 0.0034654879 -0.43609813 382.711
0.095917657 -7.4168639 1.2171056 76 -0.1044102 0.0095834676 -0.40040717 397.708
1.0726134 -7.6999731 1.1082139 77 -0.10256104 0.018225411 -0.26319769 405.714
1.8026114 -7.8172345 1.0628872 78 -0.090075903 0.020561486 -0.0092596086 410.712
2.7817099 -7.6457663 0.87332666 79 -0.047611665 0.0062987912 0.12702177 417.909
3.3263118 -7.6641827 0.81811529 80 -0.097044274 -0.0080837645 -0.10814933 422.313
4.298274 -7.8072515 1.0538352 81 -0.13834292 -0.048678093 -0.13915513 429.113
5.3107996 -7.9500403 1.1530451 82 -0.13388038 -0.065836191 -0.13864006 435.514
6.2127833 -7.9846892 1.4099497 83 -0.12169243 -0.055161323 0.07750418 442.713
6.2069778 -7.9254832 1.4198246 84 -0.13006206 -0.027723469 0.30059144 443.11
6.1798925 -7.8679447 1.428298 85 -0.13284352 0.0027440032 0.52994049 443.513
6.8997974 -7.1834908 1.6362648 86 -0.1390245 0.033962999 0.70207232 450.512
7.4782701 -6.6037412 2.0383384 87 -0.17589542 0.084903814 0.99434555 456.913
7.427494 -6.5667305 2.0120289 88 -0.15062886 0.11939126 1.2166233 457.313
7.3971543 -6.4570246 1.9664674 89 -0.11307322 0.15132825 1.4731144 459.513
7.4642248 -5.4817066 1.6904293 90 -0.082570925 0.14059046 1.4856229 466.111
7.575212 -4.4896851 1.5790155 91 -0.094395638 0.13152421 1.4878222 472.313
7.6364975 -3.561193 1.199515 92 -0.070933238 0.107145 1.4916819 478.106
7.6873574 -2.7314005 0.59368324 93 -0.026050618 0.077962935 1.4918743 483.512
7.7361207 -1.9633801 -0.053257734 94 0.0093085784 0.014431424 1.4909958 488.109
7.8010144 -0.96696371 0.08606606 95 -0.0076042106 0.010077468 1.4925082 494.313
7.9010792 0.060271144 0.099541992 96 -0.01592675 0.01447641 1.4936711 500.708
7.9674268 1.0646422 0.051846605 97 -0.010366431 0.0026588235 1.4937994 506.914
